132.3719940185547 34.26800155639648 5.616000175476074
132.3200073242188 33.45399856567383 6.961999893188477
129.5970001220703 36.26499938964844 3.372999906539917
132.4989929199219 35.54899978637695 2.75600004196167
132.3890075683594 33.81399917602539 5.633999824523926
129.4109954833984 35.97200012207031 1.29200005531311
132.5390014648438 35.47900009155273 2.170000076293945
132.4179992675781 33.56700134277344 5.346000194549561
128.3600006103516 33.52899932861328 2.453999996185303
132.6049957275391 35.75899887084961 0.9490000009536743
132.5610046386719 35.09400177001953 2.056999921798706
132.4649963378906 33.58300018310547 4.568999767303467
129.9980010986328 36.62900161743164 8.369999885559082
132.5359954833984 33.9379997253418 3.216000080108643
132.4759979248047 32.98099899291992 4.809999942779541
129.8939971923828 36.4640007019043 7.205999851226807
132.6430053710938 34.85200119018555 0.9279999732971191
132.5850067138672 33.94100189208984 2.450000047683716
132.5279998779297 33.05899810791016 3.921999931335449
132.4969940185547 32.56900024414063 4.738999843597412
129.5370025634766 35.89699935913086 3.223000049591064
132.5980072021484 33.38399887084961 2.601999998092651
132.5390014648438 32.46699905395508 4.13700008392334
129.4380035400391 35.7400016784668 2.114000082015991
132.6549987792969 33.46699905395508 1.654000043869019
129.9600067138672 36.3120002746582 8.421999931335449
132.64599609375 32.63600158691406 2.33299994468689
129.9149932861328 36.24200057983398 7.928999900817871
132.6710052490234 32.29700088500977 2.154999971389771
129.6239929199219 35.77700042724609 4.672999858856201
129.4429931640625 35.48799896240234 2.651000022888184
129.8710021972656 35.89799880981445 7.932000160217285
129.7940063476563 35.77500152587891 7.080999851226807
129.5090026855469 35.31800079345703 3.901999950408936
129.8730010986328 35.64099884033203 8.440999984741211
129.7960052490234 35.51699829101563 7.581999778747559
129.6959991455078 35.35699844360352 6.47599983215332
129.5279998779297 35.08599853515625 4.596000194549561
129.4299926757813 34.92800140380859 3.502000093460083
129.7200012207031 35.14799880981445 7.209000110626221
129.6060028076172 34.96200180053711 5.933000087738037
129.4869995117188 34.77000045776367 4.60699987411499
129.2890014648438 34.45199966430664 2.410000085830688
129.2480010986328 34.38299942016602 1.942000031471252
129.7890014648438 35.00099945068359 8.456000328063965
129.6820068359375 34.82600021362305 7.25600004196167
129.5619964599609 34.62900161743164 5.919000148773193
129.4620056152344 34.46900177001953 4.815999984741211
129.2669982910156 34.15299987792969 2.647000074386597
129.7610015869141 34.68899917602539 8.626999855041504
129.677001953125 34.55300140380859 7.699999809265137
129.5420074462891 34.33200073242188 6.190999984741211
129.3179931640625 33.96799850463867 3.714999914169312
129.718994140625 34.3380012512207 8.678000450134277
129.5090026855469 33.99499893188477 6.347000122070313
129.343994140625 33.72499847412109 4.52299976348877
129.6519927978516 33.98500061035156 8.387999534606934
129.5119934082031 33.75600051879883 6.837999820709229
132.0099945068359 38.8390007019043 5.282999992370605
131.9819946289063 38.39300155639648 6.007999897003174
129.4550018310547 33.66400146484375 6.210000038146973
132.031005859375 38.36999893188477 5.25600004196167
131.9980010986328 37.84799957275391 6.10699987411499
129.22900390625 33.29100036621094 3.700000047683716
132.0330047607422 37.70399856567383 5.645999908447266
129.4739990234375 33.4119987487793 6.934000015258789
132.0639953613281 37.38399887084961 5.370999813079834
132.1860046386719 38.54299926757813 2.706000089645386
132.0970001220703 37.1349983215332 5.014999866485596
132.1320037841797 36.92399978637695 4.610000133514404
132.1109924316406 36.60200119018555 5.138999938964844
131.9949951171875 34.75699996948242 8.170000076293945
129.4140014648438 33.31399917602539 6.269000053405762
132.2369995117188 37.89099884033203 2.312999963760376
132.1849975585938 37.06499862670898 3.671000003814697
132.1510009765625 36.52999877929688 4.552000045776367
132.1119995117188 35.89500045776367 5.598000049591064
129.281005859375 33.09500122070313 4.811999797821045
132.2790069580078 37.82199859619141 1.692000031471252
132.2480010986328 37.32600021362305 2.507999897003174
132.2180023193359 36.85499954223633 3.285000085830688
132.0800018310547 33.88800048828125 7.406000137329102
132.0599975585938 33.58200073242188 7.913000106811523
128.3990020751953 34.13199996948242 1.445000052452087
132.1999969482422 35.0620002746582 4.741000175476074
132.1809997558594 34.75400161743164 5.250999927520752
132.1510009765625 34.29399871826172 6.011000156402588
132.1109924316406 33.66899871826172 7.046000003814697
128.2940063476563 33.22200012207031 3.676000118255615
132.3130035400391 36.06700134277344 2.305000066757202
132.1820068359375 33.99900054931641 5.73199987411499
129.2120056152344 32.97999954223633 4.040999889373779
132.3150024414063 35.29700088500977 2.775000095367432
132.2279968261719 33.9370002746582 5.032000064849854
129.2319946289063 32.76100158691406 4.723000049591064
132.3990020751953 35.90999984741211 1.037999987602234
132.2530059814453 33.60699844360352 4.867000102996826
128.9129943847656 32.23500061035156 1.202000021934509
132.3370056152344 34.17900085449219 3.161999940872192
132.2760009765625 33.23500061035156 4.732999801635742
132.2539978027344 32.89599990844727 5.296999931335449
129.2120056152344 32.47000122070313 4.980000019073486
132.4389953613281 35.09199905395508 0.9340000152587891
132.3300018310547 33.38999938964844 3.773999929428101
128.968994140625 32.06700134277344 2.302999973297119
132.4470062255859 34.40200042724609 1.271999955177307
132.3899993896484 33.5099983215332 2.760999917984009
132.3480072021484 32.87300109863281 3.82699990272522
128.8289947509766 31.83399963378906 0.7509999871253967
132.4210052490234 33.30300140380859 2.405999898910522
128.7640075683594 31.72800064086914 0.04699999839067459
132.4400024414063 32.80799865722656 2.417999982833862
129.0269927978516 31.9109992980957 3.41100001335144
132.4649963378906 32.44200134277344 2.26200008392334
128.9830017089844 31.5620002746582 3.45199990272522
128.7149963378906 31.11199951171875 0.4909999966621399
128.6009979248047 30.91799926757813 -0.7839999794960022
128.9049987792969 31.15800094604492 3.078000068664551
128.7949981689453 30.97299957275391 1.876000046730042
128.6730041503906 30.76799964904785 0.5249999761581421
129.6950073242188 39.81999969482422 1.358999967575073
129.6049957275391 39.68399810791016 0.3300000131130219
129.7149963378906 39.58399963378906 2.068000078201294
129.6629943847656 39.50600051879883 1.480000019073486
129.5670013427734 39.36100006103516 0.3880000114440918
129.6779937744141 39.25299835205078 2.161999940872192
129.5630035400391 39.07899856567383 0.8579999804496765
129.6390075683594 38.93099975585938 2.209000110626221
129.5480041503906 38.79199981689453 1.180999994277954
129.5500030517578 38.54000091552734 1.671000003814697
129.4720001220703 38.41999816894531 0.7889999747276306
129.5970001220703 38.34400177001953 2.707000017166138
129.5299987792969 38.2400016784668 1.949000000953674
129.6340026855469 38.12699890136719 3.638999938964844
129.4869995117188 37.90000152587891 1.97599995136261
129.7039947509766 37.94900131225586 4.966000080108643
129.5370025634766 37.6879997253418 3.073999881744385
129.4069976806641 37.48600006103516 1.60699999332428
128.3159942626953 33.56600189208984 3.101000070571899
129.7039947509766 37.70100021362305 5.428999900817871
129.4969940185547 37.37599945068359 3.092000007629395
129.3679962158203 37.17599868774414 1.64300000667572
128.3580017089844 34.21200180053711 2.023000001907349
129.3170013427734 36.80899810791016 1.595999956130981
128.2920074462891 33.97700119018555 3.217999935150146
129.4309997558594 36.7400016784668 3.33899998664856
129.2740020751953 36.49300003051758 1.578999996185303
128.343994140625 34.79299926757813 1.860000014305115
129.4750061035156 36.54600143432617 4.328000068664551
129.2160034179688 36.13700103759766 1.417999982833862
131.8029937744141 37.66899871826172 6.047999858856201
129.1049957275391 35.96099853515625 0.1739999949932098
131.843994140625 37.51200103759766 5.508999824523926
131.7389984130859 35.82500076293945 8.270000457763672
131.8639984130859 37.12200164794922 5.453999996185303
131.7700042724609 35.63000106811523 7.900000095367432
131.97900390625 38.14300155639648 2.973000049591064
131.8990020751953 36.88100051879883 5.045000076293945
131.7870025634766 35.09700012207031 7.972000122070313
128.2160034179688 33.57099914550781 4.658999919891357
132.0260009765625 38.125 2.240000009536743
131.9160003662109 36.38000106811523 5.109000205993652
129.8419952392578 36.87799835205078 8.928999900817871
132.0639953613281 37.96200180053711 1.758999943733215
132.0440063476563 37.64400100708008 2.280999898910522
132.0019989013672 36.99200057983398 3.357000112533569
131.9190063476563 35.6619987487793 5.546000003814697
129.7740020751953 36.77000045776367 8.16100025177002
132.0599975585938 37.19599914550781 2.309999942779541
131.9170074462891 34.92200088500977 6.059000015258789
128.2980041503906 34.82699966430664 2.568000078201294
131.9839935302734 35.25699996948242 4.764999866485596
131.8840026855469 33.6879997253418 7.357999801635742
128.177001953125 33.70600128173828 5.177999973297119
132.0529937744141 35.57799911499023 3.469000101089478
131.9700012207031 34.26599884033203 5.640999794006348
126.9440002441406 38.10599899291992 4.303999900817871
131.9750061035156 33.62400054931641 5.965000152587891
129.4920043945313 36.31999969482422 4.993000030517578
132.1799926757813 36.04499816894531 1.177000045776367
132.0330047607422 33.75699996948242 4.978000164031982
129.2510070800781 35.9370002746582 2.285000085830688
132.0919952392578 33.88899993896484 3.957000017166138
129.0659942626953 35.64400100708008 0.2169999927282333
132.2209930419922 35.18199920654297 1.090000033378601
132.1170043945313 33.56499862670898 3.782999992370605
129.7669982910156 36.47800064086914 8.595000267028809
132.2389984130859 34.73199844360352 1.08899998664856
132.1779937744141 33.78200149536133 2.674999952316284
132.1329956054688 33.07899856567383 3.846999883651733
129.6109924316406 36.22900009155273 6.847000122070313
132.1959991455078 33.34199905395508 2.691999912261963
132.1609954833984 32.81499862670898 3.575000047683716
129.4510040283203 35.97299957275391 5.056000232696533
132.2220001220703 32.95600128173828 2.529000043869019
129.3370056152344 35.79100036621094 3.779000043869019
129.2059936523438 35.58200073242188 2.312000036239624
129.64599609375 36.01100158691406 7.755000114440918
129.4170074462891 35.64400100708008 5.188000202178955
129.3179931640625 35.48500061035156 4.081999778747559
129.6430053710938 35.75 8.201000213623047
129.5160064697266 35.54499816894531 6.778999805450439
129.2790069580078 34.89099884033203 4.636000156402588
129.0690002441406 34.54899978637695 2.279000043869019
129.0130004882813 34.45899963378906 1.646000027656555
129.5050048828125 34.99800109863281 7.63100004196167
129.4550018310547 34.91799926757813 7.076000213623047
129.2460021972656 34.57799911499023 4.747000217437744
129.1349945068359 34.39699935913086 3.500999927520752
129.4799957275391 34.7140007019043 7.815000057220459
129.3489990234375 34.5 6.343999862670898
129.2010040283203 34.25799942016602 4.699999809265137
129.0570068359375 34.02299880981445 3.089999914169312
129.4290008544922 34.37099838256836 7.71999979019165
129.3260040283203 34.20399856567383 6.586999893188477
129.0989990234375 33.83000183105469 4.046999931335449
129.4499969482422 34.13800048828125 8.472000122070313
129.3179931640625 33.91999816894531 6.994999885559082
129.2310028076172 33.77700042724609 6.02400016784668
129.1430053710938 33.63100051879883 5.044000148773193
129.1139984130859 33.58300018310547 4.721000194549561
129.1679992675781 33.39199829101563 5.841000080108643
129.0899963378906 33.26399993896484 4.97700023651123
128.9559936523438 33.04199981689453 3.490000009536743
129.0429992675781 32.93500137329102 4.925000190734863
128.9559936523438 32.79000091552734 3.954999923706055
128.656005859375 32.29299926757813 0.6290000081062317
129.0339965820313 32.63899993896484 5.341000080108643
128.97900390625 32.54800033569336 4.736999988555908
128.7120056152344 32.10300064086914 1.774999976158142
128.6069946289063 31.92799949645996 0.6129999756813049
131.5590057373047 36.31399917602539 7.913000106811523
128.5440063476563 31.82299995422363 -0.08900000154972076
131.6739959716797 37.41899871826172 5.389999866485596
131.5700073242188 35.77000045776367 8.090999603271484
131.7749938964844 38.2140007019043 3.289000034332275
131.5859985351563 35.22600173950195 8.189000129699707
131.7969970703125 37.84099960327148 3.194999933242798
131.7089996337891 36.47299957275391 5.440000057220459
131.6049957275391 34.82799911499023 8.142000198364258
131.8079986572266 37.22200012207031 3.411999940872192
131.7890014648438 36.91999816894531 3.907999992370605
131.7400054931641 36.13800048828125 5.193999767303467
131.6940002441406 35.42900085449219 6.361000061035156
131.6260070800781 34.3650016784668 8.109999656677246
128.9340057373047 32.22700119018555 4.696000099182129
131.8800048828125 37.58200073242188 2.052000045776367
131.8220062255859 36.69200134277344 3.519999980926514
131.7369995117188 35.34600067138672 5.738999843597412
131.7200012207031 35.07600021362305 6.184999942779541
128.2630004882813 35.79299926757813 2.483000040054321
131.8139953613281 35.82300186157227 4.217000007629395
131.7660064697266 35.06000137329102 5.479000091552734
131.7070007324219 34.14099884033203 6.997000217437744
131.6799926757813 33.73199844360352 7.671000003814697
126.9860000610352 38.00299835205078 3.710000038146973
131.8619995117188 35.8650016784668 3.440999984741211
131.7899932861328 34.72999954223633 5.315999984741211
128.1710052490234 35.10800170898438 4.36899995803833
131.8849945068359 35.49100112915039 3.311000108718872
131.7980041503906 34.11600112915039 5.586999893188477
126.9189987182617 36.94900131225586 5.440000057220459
131.9239959716797 35.31100082397461 2.828999996185303
131.8359985351563 33.94699859619141 5.093999862670898
131.8070068359375 33.48799896240234 5.854000091552734
128.6940002441406 31.82500076293945 2.038000106811523
131.8560028076172 33.52299880981445 5.054999828338623
128.5559997558594 31.59600067138672 0.5139999985694885
131.9440002441406 34.11800003051758 3.295000076293945
131.9219970703125 33.78300094604492 3.854000091552734
128.4810028076172 31.4689998626709 -0.3210000097751617
132.0440063476563 34.87099838256836 1.233999967575073
131.9770050048828 33.84600067138672 2.944000005722046
131.9429931640625 33.32899856567383 3.806999921798706
128.5110015869141 31.25799942016602 0.4979999959468842
132 33.50199890136719 2.815999984741211
131.9629974365234 32.95399856567383 3.730999946594238
128.4129943847656 31.0930004119873 -0.5899999737739563
131.9929962158203 32.67399978637695 3.45199990272522
128.6909942626953 31.31399917602539 2.947000026702881
132.0480041503906 32.82300186157227 2.48799991607666
128.4660034179688 30.93600082397461 0.4670000076293945
128.3719940185547 30.77400016784668 -0.5950000286102295
128.6159973144531 30.9060001373291 2.638999938964844
129.3800048828125 39.09999847412109 2.232000112533569
129.3410034179688 38.50400161743164 2.793999910354614
129.2330017089844 38.3380012512207 1.569000005722046
129.1640014648438 38.22999954223633 0.7789999842643738
129.3190002441406 38.21900177001953 3.013000011444092
129.1970062255859 38.02899932861328 1.625
129.2760009765625 37.87900161743164 3.029000043869019
129.1589965820313 37.69699859619141 1.695000052452087
129.2630004882813 37.5890007019043 3.394000053405762
129.1020050048828 37.33700180053711 1.574000000953674
129.0700073242188 37.00099945068359 1.75
128.0959930419922 34.68099975585938 5.791999816894531
129.1589965820313 36.88899993896484 3.21399998664856
129.0140075683594 36.6609992980957 1.580999970436096
128.1380004882813 35.31999969482422 4.735000133514404
129.4429931640625 37.05500030517578 6.954999923706055
129.2140045166016 36.69200134277344 4.38100004196167
129.0449981689453 36.42300033569336 2.470000028610229
128.22900390625 36.72900009155273 2.407000064849854
129.4929962158203 36.88899993896484 7.968999862670898
129.2169952392578 36.44900131225586 4.861000061035156
128.8710021972656 35.90000152587891 0.9760000109672546
128.802001953125 35.78799819946289 0.1840000003576279
128.2760009765625 37.4630012512207 1.195999979972839
129.4889984130859 36.62300109863281 8.406000137329102
129.3800048828125 36.45100021362305 7.192999839782715
129.2030029296875 36.16799926757813 5.202000141143799
128.9770050048828 35.80599975585938 2.651999950408936
126.8519973754883 35.89400100708008 7.169000148773193
129.4170074462891 36.2599983215332 8.072999954223633
129.322998046875 36.10599899291992 7.002999782562256
129.1600036621094 35.84600067138672 5.183000087738037
128.9519958496094 35.51300048828125 2.848999977111816
129.3860015869141 35.92699813842773 8.25
129.3209991455078 35.82199859619141 7.525000095367432
131.2590026855469 36.6609992980957 8.428999900817871
129.2330017089844 35.68099975585938 6.540999889373779
131.39599609375 38.05300140380859 5.368000030517578
131.3679962158203 37.625 6.066999912261963
131.2949981689453 36.44699859619141 7.992000102996826
131.3119964599609 36.01300048828125 7.997000217437744
131.5220031738281 38.58000183105469 3.049999952316284
131.4389953613281 37.2859992980957 5.172999858856201
131.3350067138672 35.61999893188477 7.901000022888184
129.1390075683594 35.52799987792969 5.484000205993652
131.5989990234375 39.07699966430664 1.521999955177307
131.5440063476563 38.20500183105469 2.953999996185303
131.4559936523438 36.83700180053711 5.198999881744385
131.5110015869141 36.89400100708008 4.303999900817871
131.3589935302734 34.4900016784668 8.258000373840332
131.6119995117188 37.77500152587891 2.148000001907349
131.5930023193359 37.46500015258789 2.658999919891357
131.5339965820313 36.55400085449219 4.157999992370605
131.4889984130859 35.84299850463867 5.328999996185303
131.447998046875 35.18399810791016 6.414000034332275
129.0249938964844 35.34500122070313 4.206999778747559
131.5379943847656 35.80300140380859 4.604000091552734
131.4830017089844 34.94800186157227 6.013999938964844
131.4170074462891 33.92699813842773 7.698999881744385
131.4389953613281 33.51699829101563 7.623000144958496
126.9349975585938 36.44900131225586 5.513999938964844
131.6230010986328 35.65299987792969 3.345999956130981
131.5440063476563 34.40599822998047 5.408999919891357
131.5229949951172 34.07799911499023 5.952000141143799
131.4770050048828 33.38199996948242 7.105000019073486
128.0119934082031 34.87900161743164 6.966000080108643
131.6569976806641 35.48400115966797 2.918999910354614
131.5700073242188 34.12699890136719 5.169000148773193
131.5399932861328 33.65499877929688 5.949999809265137
131.5030059814453 33.08700180053711 6.89300012588501
128.0679931640625 35.75199890136719 5.526999950408936
129.3209991455078 35.55300140380859 8.029999732971191
131.7669982910156 35.66899871826172 1.075000047683716
131.6139984130859 33.30400085449219 5.008999824523926
129.2400054931641 35.42100143432617 7.114999771118164
131.7510070800781 34.68299865722656 1.967000007629395
131.7039947509766 33.9370002746582 3.210000038146973
129.0919952392578 35.18099975585938 5.453999996185303
131.8000030517578 34.67200088500977 1.210999965667725
128.9889984130859 35.01300048828125 4.302999973297119
131.8329925537109 34.4010009765625 0.8600000143051147
129.1170043945313 34.9640007019043 6.229000091552734
131.7640075683594 32.64199829101563 3.08899998664856
128.9620056152344 34.70899963378906 4.48199987411499
128.8500061035156 34.52799987792969 3.227999925613403
128.7010040283203 34.28799819946289 1.572999954223633
129.2279968261719 34.87699890136719 7.978000164031982
129.0870056152344 34.64599990844727 6.388999938964844
128.718994140625 34.04299926757813 2.266000032424927
129.1020050048828 34.41299819946289 7.033999919891357
129.0149993896484 34.27099990844727 6.064000129699707
128.8800048828125 34.04800033569336 4.547999858856201
128.9739990234375 33.95700073242188 6.065999984741211
128.8650054931641 33.77700042724609 4.855999946594238
128.7949981689453 33.6619987487793 4.067999839782715
128.7250061035156 33.54700088500977 3.293999910354614
128.5579986572266 33.27199935913086 1.427000045776367
128.9570007324219 33.66799926757813 6.361000061035156
128.8979949951172 33.57099914550781 5.711999893188477
128.7830047607422 33.38100051879883 4.429999828338623
128.4859924316406 32.88899993896484 1.116000056266785
128.9010009765625 33.31100082397461 6.241000175476074
128.75 33.05899810791016 4.559999942779541
128.6329956054688 32.86600112915039 3.263000011444092
128.5189971923828 32.67599868774414 1.985999941825867
128.7299957275391 32.73899841308594 4.869999885559082
128.6549987792969 32.6150016784668 4.032999992370605
128.5870056152344 32.50099945068359 3.278000116348267
128.4669952392578 32.29999923706055 1.940999984741211
128.6699981689453 32.39199829101563 4.659999847412109
128.4170074462891 31.9689998626709 1.853999972343445
128.3309936523438 31.82600021362305 0.9020000100135803
128.3609924316406 31.59199905395508 1.754999995231628
128.2539978027344 31.41200065612793 0.5690000057220459
129.0650024414063 39.24599838256836 2.178999900817871
131.0149993896484 39.23300170898438 6.074999809265137
129.0800018310547 38.99399948120117 2.869999885559082
131.0399932861328 38.89199829101563 5.901000022888184
129.0390014648438 38.66500091552734 2.895999908447266
131.0370025634766 38.06100082397461 6.485000133514404
129.0010070800781 38.33399963378906 2.977999925613403
131.0910034179688 38.16899871826172 5.564000129699707
130.9920043945313 36.59099960327148 8.137999534606934
131.1519927978516 38.36999893188477 4.480000019073486
131.0149993896484 36.19200134277344 8.041000366210938
131.0330047607422 35.68399810791016 8.079000473022461
131.1750030517578 37.23799896240234 4.840000152587891
131.1269989013672 36.46699905395508 6.104000091552734
131.0460052490234 35.20000076293945 8.180999755859375
131.197998046875 36.86199951171875 4.717000007629395
131.1499938964844 36.0880012512207 5.98799991607666
131.0659942626953 34.77299880981445 8.14900016784668
128.97900390625 38.03499984741211 3.226000070571899
131.2169952392578 36.45100021362305 4.690000057220459
131.1739959716797 35.75500106811523 5.836999893188477
131.1529998779297 35.42399978637695 6.379000186920166
131.0789947509766 34.26599884033203 8.28600025177002
131.3359985351563 37.49100112915039 2.164999961853027
131.2160034179688 35.61600112915039 5.25600004196167
131.1809997558594 35.06000137329102 6.172999858856201
131.1009979248047 33.80599975585938 8.23900032043457
128.8260040283203 37.79600143432617 1.486999988555908
131.3000030517578 36.23600006103516 3.532000064849854
131.2389984130859 35.2760009765625 5.116000175476074
131.1529998779297 33.93199920654297 7.336999893188477
131.1320037841797 33.61199951171875 7.864999771118164
128.7689971923828 37.70800018310547 0.8399999737739563
131.2209930419922 34.18199920654297 6.117000102996826
131.1820068359375 33.58599853515625 7.10099983215332
128.1340026855469 36.7760009765625 3.839999914169312
131.4320068359375 36.70899963378906 1.161999940872192
131.2760009765625 34.27299880981445 5.198999881744385
126.9130020141602 36.07899856567383 6.119999885559082
131.4570007324219 36.36600112915039 0.9890000224113464
127.9629974365234 34.9010009765625 7.711999893188477
131.4660034179688 35.79899978637695 1.213000059127808
131.3269958496094 33.64500045776367 4.791999816894531
128.9199981689453 37.69100189208984 3.026000022888184
131.4069976806641 34.15599822998047 3.209000110626221
128.7899932861328 37.48799896240234 1.547999978065491
131.5079956054688 34.94699859619141 1.115000009536743
128.875 37.35800170898438 3.009999990463257
131.5319976806641 34.59299850463867 0.9509999752044678
128.7870025634766 37.22100067138672 2.013999938964844
131.468994140625 32.85100173950195 3.086999893188477
129.1390075683594 37.50099945068359 6.500999927520752
128.9380035400391 37.18399810791016 4.239999771118164
128.7920074462891 36.95299911499023 2.585999965667725
129.1069946289063 37.16999816894531 6.668000221252441
128.9839935302734 36.9739990234375 5.281000137329102
128.9010009765625 36.84299850463867 4.342000007629395
128.8170013427734 36.71099853515625 3.397000074386597
128.0449981689453 36.18500137329102 5.60099983215332
129.0639953613281 36.8489990234375 6.65500020980835
128.9470062255859 36.66400146484375 5.342000007629395
128.5610046386719 36.04999923706055 0.984000027179718
127.9670028686523 35.65999984741211 7.164000034332275
129.1390075683594 36.68899917602539 8.026000022888184
129.0319976806641 36.51900100708008 6.823999881744385
128.9019927978516 36.31100082397461 5.361000061035156
128.6620025634766 35.92599868774414 2.650000095367432
128.5099945068359 35.68500137329102 0.9470000267028809
129.1300048828125 36.42699813842773 8.395999908447266
128.9559936523438 36.14799880981445 6.434000015258789
128.8780059814453 36.02199935913086 5.559000015258789
128.8260040283203 35.9379997253418 4.96999979019165
128.5890045166016 35.55799865722656 2.299999952316284
129.072998046875 36.07500076293945 8.229000091552734
128.9349975585938 35.85200119018555 6.673999786376953
128.6419982910156 35.38100051879883 3.388999938964844
128.0249938964844 36.57699966430664 5.660999774932861
128.7960052490234 35.38100051879883 5.587999820709229
128.6139984130859 35.0880012512207 3.54800009727478
128.8979949951172 35.26599884033203 7.263999938964844
128.7980041503906 35.10300064086914 6.138000011444092
128.4010009765625 34.45700073242188 1.687999963760376
128.7729949951172 34.79499816894531 6.355999946594238
128.5010070800781 34.34999847412109 3.305999994277954
128.3970031738281 34.18099975585938 2.144999980926514
128.3320007324219 34.07600021362305 1.424000024795532
128.7350006103516 34.4739990234375 6.427000045776367
128.4510040283203 34.00600051879883 3.243000030517578
128.3650054931641 33.8650016784668 2.276000022888184
128.6920013427734 34.13100051879883 6.434999942779541
130.7120056152344 39.44900131225586 6.034999847412109
128.6080017089844 33.99399948120117 5.505000114440918
130.72900390625 38.98199844360352 6.065999984741211
128.5429992675781 33.88800048828125 4.784999847412109
130.7480010986328 38.57500076293945 6.02299976348877
128.4799957275391 33.78200149536133 4.076000213623047
130.9360046386719 40.80599975585938 1.652999997138977
130.7590026855469 37.99499893188477 6.235000133514404
130.7089996337891 36.41500091552734 8.052000045776367
130.8280029296875 37.5620002746582 5.440999984741211
130.8130035400391 37.33100128173828 5.818999767303467
130.7330017089844 36.04899978637695 7.915999889373779
128.3760070800781 33.61199951171875 2.915999889373779
130.8580017089844 37.27899932861328 5.144999980926514
130.8179931640625 36.63000106811523 6.209000110626221
130.7279968261719 35.19800186157227 8.555000305175781
128.5529937744141 33.64199829101563 5.372000217437744
130.8999938964844 37.13399887084961 4.584000110626221
130.8350067138672 36.10499954223633 6.27299976348877
130.7530059814453 34.80199813842773 8.411999702453613
128.3029937744141 33.23099899291992 2.589999914169312
130.8690032958984 35.92800140380859 5.864999771118164
130.7980041503906 34.82400131225586 7.678999900817871
130.7749938964844 34.46200180053711 8.276000022888184
128.2270050048828 33.10499954223633 1.738999962806702
130.9360046386719 36.24599838256836 4.597000122070313
130.8699951171875 35.2140007019043 6.296999931335449
130.7910003662109 33.9630012512207 8.357999801635742
131.0480041503906 37.29999923706055 2.157000064849854
130.8249969482422 33.79199981689453 7.941999912261963
131.0180053710938 36.02199935913086 3.459000110626221
130.8719940185547 33.74300003051758 7.22599983215332
130.843994140625 33.31600189208984 7.931000232696533
131.1199951171875 36.89599990844727 1.300999999046326
131.0670013427734 36.08000183105469 2.651999950408936
130.9700012207031 34.56000137329102 5.166999816894531
130.8999938964844 33.48799896240234 6.942999839782715
130.8809967041016 33.18999862670898 7.434999942779541
127.036003112793 37.25500106811523 3.424000024795532
131.0659942626953 35.27299880981445 3.184999942779541
130.9340057373047 33.2140007019043 6.599999904632568
127.9280014038086 35.84099960327148 7.657999992370605
131.031005859375 33.95299911499023 4.605000019073486
130.9730072021484 33.07099914550781 6.072000026702881
127.9449996948242 36.12400054931641 7.193999767303467
131.1029968261719 34.33499908447266 3.229000091552734
131.0590057373047 33.6609992980957 4.348000049591064
126.9420013427734 35.77000045776367 5.86899995803833
131.1100006103516 33.74900054931641 3.489000082015991
131.0910034179688 33.45100021362305 3.986999988555908
128.4669952392578 33.25500106811523 4.889999866485596
131.2250061035156 34.7859992980957 1.013000011444092
131.1280059814453 33.30199813842773 3.490999937057495
128.3840026855469 33.1150016784668 3.954999923706055
131.1580047607422 32.98899841308594 3.240999937057495
128.2630004882813 32.91600036621094 2.611000061035156
131.2680053710938 33.94599914550781 0.8840000033378601
131.1860046386719 32.69100189208984 2.986999988555908
128.3289947509766 32.76599884033203 3.835000038146973
131.2089996337891 32.27999877929688 2.901000022888184
128.2559967041016 32.64400100708008 3.016000032424927
128.1900024414063 32.53400039672852 2.282999992370605
128.3950042724609 32.60499954223633 5.068999767303467
131.2310028076172 31.84700012207031 2.819000005722046
128.3190002441406 32.47900009155273 4.230000019073486
128.1909942626953 32.26399993896484 2.796999931335449
128.1080017089844 32.12599945068359 1.883000016212463
127.8730010986328 31.73299980163574 -0.734000027179718
128.0290069580078 31.7140007019043 1.519999980926514
128.6739959716797 39.59400177001953 1.074000000953674
128.6510009765625 39.29600143432617 1.304000020027161
128.6419982910156 39.02799987792969 1.690000057220459
128.7460021972656 38.90299987792969 3.404000043869019
128.6269989013672 38.71900177001953 2.040999889373779
128.7420043945313 38.62300109863281 3.861999988555908
128.6159973144531 38.42900085449219 2.428999900817871
128.7050018310547 38.29800033569336 3.944999933242798
128.5780029296875 38.10100173950195 2.5
128.4250030517578 37.86399841308594 0.765999972820282
128.6410064697266 37.92900085449219 3.729000091552734
128.5760040283203 37.82799911499023 2.990000009536743
128.5119934082031 37.72700119018555 2.260999917984009
128.6080017089844 37.61199951171875 3.854000091552734
128.4909973144531 37.42900085449219 2.525000095367432
128.3829956054688 37.25899887084961 1.299999952316284
128.5859985351563 37.32600021362305 4.072999954223633
128.5099945068359 37.20600128173828 3.213000059127808
128.7400054931641 37.30899810791016 6.307000160217285
128.6649932861328 37.18899917602539 5.462999820709229
128.5460052490234 37 4.105999946594238
128.3609924316406 36.70800018310547 2.020999908447266
128.7480010986328 37.05199813842773 6.896999835968018
128.6840057373047 36.95100021362305 6.171999931335449
128.4680023193359 36.60800170898438 3.742000102996826
128.6750030517578 36.65399932861328 6.60699987411499
128.4649963378906 36.31800079345703 4.243000030517578
128.3800048828125 36.18199920654297 3.279999971389771
130.4620056152344 39.43500137329102 5.763999938964844
127.9010009765625 36.14099884033203 7.875
130.4739990234375 38.86399841308594 5.942999839782715
128.6699981689453 36.39899826049805 7.010000228881836
130.4929962158203 38.4119987487793 5.942999839782715
128.6280059814453 36.33100128173828 6.53000020980835
130.5059967041016 37.90599822998047 6.059000015258789
130.4739990234375 37.38399887084961 6.909999847412109
128.3609924316406 35.90399932861328 3.526999950408936
130.5399932861328 37.68399810791016 5.677999973297119
130.4929962158203 36.92100143432617 6.926000118255615
130.4600067138672 36.40399932861328 7.769999980926514
128.2619934082031 35.74499893188477 2.415999889373779
130.7180023193359 39.72800064086914 1.572999954223633
130.6260070800781 37.53400039672852 4.427000045776367
130.5010070800781 35.55199813842773 7.676000118255615
130.4530029296875 34.79399871826172 8.920000076293945
130.7169952392578 38.19900131225586 2.572000026702881
130.5749969482422 35.95800018310547 6.252999782562256
130.531005859375 35.25299835205078 7.410999774932861
130.4830017089844 34.51499938964844 8.623000144958496
130.6759948730469 36.75199890136719 4.151999950408936
130.6100006103516 35.71200180053711 5.863999843597412
130.5480041503906 34.72200012207031 7.493000030517578
130.7469940185547 37.16699981689453 2.766999959945679
127.9309997558594 36.59799957275391 7.129000186920166
130.7879943847656 37.05400085449219 2.209000110626221
130.593994140625 34.02299880981445 7.211999893188477
128.3450012207031 35.59199905395508 3.885999917984009
130.8289947509766 36.99399948120117 1.590000033378601
130.6060028076172 33.50299835205078 7.363999843597412
128.0010070800781 37.72100067138672 5.289999961853027
130.7859954833984 35.51300048828125 3.229000091552734
130.7169952392578 34.42499923706055 5.03000020980835
128.0379943847656 38.29899978637695 4.34499979019165
130.7429962158203 34.13299942016602 4.804999828338623
130.6889953613281 33.29100036621094 6.203000068664551
127.0650024414063 36.89599990844727 3.211999893188477
130.8260040283203 34.63199996948242 3.177999973297119
130.7729949951172 33.80099868774414 4.558000087738037
127.8720016479492 36.43399810791016 8.133000373840332
130.8280029296875 33.90999984741211 3.609999895095825
126.9469985961914 35.04999923706055 6.255000114440918
130.9470062255859 35.00899887084961 1.034999966621399
128.6390075683594 35.81700134277344 7.659999847412109
130.9589996337891 34.49900054931641 1.171000003814697
128.4389953613281 35.49300003051758 5.414999961853027
130.97900390625 34.07400131225586 1.129999995231628
130.8990020751953 32.83100128173828 3.209000110626221
128.3249969482422 35.31000137329102 4.136000156402588
130.9949951171875 33.57099914550781 1.190000057220459
130.9730072021484 33.20800018310547 1.799000024795532
127.0780029296875 36.36899948120117 3.365999937057495
131.0039978027344 32.94100189208984 1.483999967575073
128.5890045166016 35.47600173950195 7.584000110626221
128.3769989013672 35.13100051879883 5.206999778747559
128.2910003662109 34.99300003051758 4.25
128.1430053710938 34.75199890136719 2.579999923706055
128.572998046875 35.20500183105469 7.875
128.4499969482422 35.00299835205078 6.48799991607666
128.2640075683594 34.70100021362305 4.408999919891357
128.1179962158203 34.46200180053711 2.766999959945679
128.0449981689453 34.34400177001953 1.952000021934509
128.5010070800781 34.80799865722656 7.583000183105469
131.1150054931641 32.38600158691406 0.1120000034570694
128.3880004882813 34.625 6.320000171661377
128.2250061035156 34.35699844360352 4.498000144958496
131.1439971923828 32.1150016784668 -0.1809999942779541
128.0879974365234 34.13299942016602 2.964999914169312
128.0039978027344 33.99599838256836 2.020999908447266
131.1649932861328 31.74300003051758 -0.2750000059604645
128.4700012207031 34.4900016784668 7.741000175476074
128.3910064697266 34.36000061035156 6.861999988555908
128.2599945068359 34.14500045776367 5.401000022888184
127.9469985961914 33.63100051879883 1.898000001907349
127.8769989013672 33.51499938964844 1.115000009536743
128.4429931640625 34.19100189208984 7.925000190734863
128.1710052490234 33.74200057983398 4.888999938964844
128.0820007324219 33.59400177001953 3.888999938964844
127.9530029296875 33.38000106811523 2.437999963760376
128.0390014648438 33.25299835205078 3.91100001335144
127.8919982910156 33.01100158691406 2.280999898910522
127.838996887207 32.92100143432617 1.679999947547913
127.8600006103516 32.69100189208984 2.405999898910522
127.7900009155273 32.57500076293945 1.63100004196167
127.8249969482422 32.38700103759766 2.489000082015991
127.7519989013672 32.26399993896484 1.669000029563904
127.681999206543 31.88199996948242 1.38699996471405
127.5999984741211 31.74600028991699 0.4819999933242798
128.4909973144531 39.97900009155273 2.796999931335449
128.4470062255859 39.62699890136719 2.832000017166138
130.0769958496094 36.62400054931641 8.473999977111816
128.4160003662109 39.32799911499023 2.944000005722046
130.2030029296875 37.89799880981445 5.652999877929688
130.1470031738281 36.97999954223633 7.152999877929688
130.1049957275391 36.31800079345703 8.232999801635742
128.4589996337891 39.12900161743164 3.933000087738037
130.2830047607422 38.44300079345703 4.052000045776367
130.2369995117188 37.72299957275391 5.230000019073486
130.1600036621094 36.46699905395508 7.283999919891357
128.427001953125 38.82500076293945 4.040999889373779
130.1809997558594 36.05599975585938 7.221000194549561
130.1589965820313 35.7140007019043 7.78000020980835
130.1179962158203 35.06399917602539 8.847000122070313
130.2030029296875 35.65800094604492 7.122000217437744
130.1479949951172 34.78499984741211 8.555999755859375
130.2330017089844 35.38199996948242 6.842999935150146
130.1929931640625 34.74800109863281 7.886000156402588
128.2830047607422 38.60300064086914 2.404999971389771
130.2689971923828 35.19599914550781 6.390999794006348
130.2149963378906 34.34799957275391 7.789000034332275
128.2270050048828 38.51599884033203 1.766000032424927
130.3919982910156 36.34099960327148 3.703999996185303
130.2689971923828 34.40000152587891 6.90500020980835
128.1959991455078 38.18199920654297 1.962000012397766
130.4859924316406 37.09099960327148 1.746999979019165
130.3500061035156 34.94699859619141 5.290999889373779
130.2899932861328 34.01200103759766 6.835999965667725
128.3390045166016 38.12799835205078 4.093999862670898
130.4960021972656 36.49399948120117 1.980999946594238
130.4470062255859 35.73799896240234 3.230999946594238
130.3849945068359 34.74700164794922 4.873000144958496
130.3070068359375 33.53799819946289 6.873000144958496
128.2779998779297 37.77199935913086 3.891999959945679
130.4649963378906 35.31100082397461 3.230999946594238
130.4049987792969 34.3650016784668 4.798999786376953
128.2160034179688 37.4010009765625 3.71399998664856
130.4949951171875 34.97800064086914 2.977999925613403
130.4730072021484 34.62400054931641 3.565000057220459
130.4340057373047 34.01800155639648 4.572000026702881
127.0449981689453 35.86899948120117 4.191999912261963
130.4940032958984 34.24399948120117 3.490999937057495
130.4620056152344 33.77099990844727 4.277999877929688
126.9789962768555 34.8390007019043 5.890999794006348
130.6519927978516 35.90800094604492 -0.07999999821186066
130.6130065917969 35.31999969482422 0.8989999890327454
130.4730072021484 33.14699935913086 4.519999980926514
127.0749969482422 35.59999847412109 3.898999929428101
130.5229949951172 33.15599822998047 3.733000040054321
127.052001953125 35.23899841308594 4.497000217437744
130.5910034179688 33.46200180053711 2.476000070571899
130.5690002441406 33.14699935913086 3.003000020980835
128.0800018310547 37.18600082397461 2.16100001335144
130.64599609375 33.60900115966797 1.503000020980835
128.2449951171875 37.1870002746582 4.528999805450439
128.1580047607422 37.04899978637695 3.539999961853027
128.1410064697266 36.77199935913086 3.812999963760376
128.1009979248047 36.70800018310547 3.355999946594238
127.9850006103516 36.52500152587891 2.051000118255615
130.7510070800781 32.99399948120117 0.2509999871253967
130.6660003662109 31.69499969482422 2.437999963760376
128.2510070800781 36.68399810791016 5.544000148773193
128.093994140625 36.43500137329102 3.776000022888184
128.0370025634766 36.07099914550781 3.653000116348267
130.7799987792969 32.68600082397461 -0.00800000037997961
130.6999969482422 31.47800064086914 2.026000022888184
127.9309997558594 35.90200042724609 2.456000089645386
128.3489990234375 36.2869987487793 7.703999996185303
128.1340026855469 35.93899917602539 5.27400016784668
130.8079986572266 32.32600021362305 -0.2150000035762787
127.8919982910156 35.55199813842773 2.561000108718872
127.1330032348633 35.79000091552734 2.86899995803833
127.0930023193359 35.1609992980957 3.911999940872192
128.3150024414063 35.98600006103516 7.771999835968018
128.1179962158203 35.66799926757813 5.559000015258789
128.1130065917969 35.65999984741211 5.502999782562256
127.818000793457 35.18399810791016 2.180999994277954
127.1490020751953 35.23699951171875 2.996000051498413
130.8730010986328 31.16900062561035 -0.4760000109672546
128.2489929199219 35.59799957275391 7.559999942779541
128.0059967041016 35.20399856567383 4.835000038146973
127.8030014038086 34.87400054931641 2.552999973297119
128.2059936523438 35.28300094604492 7.539000034332275
128.0590057373047 35.04499816894531 5.89300012588501
127.9449996948242 34.85800170898438 4.613999843597412
128.1340026855469 34.90700149536133 7.208000183105469
128.0059967041016 34.69900131225586 5.789000034332275
127.8929977416992 34.51399993896484 4.519000053405762
127.6750030517578 34.15800094604492 2.078999996185303
127.8440017700195 34.18600082397461 4.434000015258789
127.556999206543 33.71599960327148 1.223000049591064
128.0630035400391 34.26900100708008 7.416999816894531
127.7679977416992 33.77999877929688 4.111000061035156
127.5589981079102 33.43600082397461 1.773000001907349
127.5139999389648 33.36199951171875 1.269999980926514
127.7180023193359 33.42699813842773 4.059999942779541
129.7270050048828 36.68899917602539 8.72599983215332
127.5370025634766 33.12799835205078 2.040999889373779
129.7599945068359 36.40599822998047 8.394000053405762
127.5090026855469 32.81900024414063 2.227999925613403
129.8950042724609 37.82699966430664 5.324999809265137
129.77099609375 35.83200073242188 8.586000442504883
129.9179992675781 37.44900131225586 5.209000110626221
129.8099975585938 35.71599960327148 8.046999931335449
129.7870025634766 35.33300018310547 8.671999931335449
129.85400390625 35.71099853515625 7.359000205993652
129.8090057373047 34.98799896240234 8.543000221252441
130.0070037841797 37.37699890136719 3.875
129.8329925537109 34.62099838256836 8.402999877929688
129.8789978027344 34.59199905395508 7.695000171661377
129.8560028076172 34.22299957275391 8.300999641418457
127.4649963378906 32.74399948120117 1.728999972343445
129.9600067138672 35.11199951171875 6.09499979019165
129.9170074462891 34.44800186157227 7.189000129699707
127.4380035400391 32.42800140380859 1.935999989509583
130.0850067138672 36.32699966430664 3.321000099182129
129.9779968261719 34.64099884033203 6.105000019073486
129.9589996337891 34.33399963378906 6.611000061035156
129.9340057373047 33.9370002746582 7.26800012588501
130.1719970703125 36.88700103759766 1.590999960899353
130.1139984130859 35.96900177001953 3.111000061035156
130.0540008544922 35.02899932861328 4.668000221252441
129.9589996337891 33.53900146484375 7.130000114440918
127.3550033569336 32.03099822998047 1.50600004196167
130.1739959716797 36.21500015258789 1.993000030517578
130.0140075683594 33.70800018310547 6.14799976348877
127.8840026855469 39.01900100708008 1.985000014305115
130.1499938964844 35.11800003051758 3.078000068664551
130.0829925537109 34.05699920654297 4.842000007629395
127.8209991455078 38.92200088500977 1.273000001907349
130.2530059814453 35.9900016784668 0.9139999747276306
130.1999969482422 35.18000030517578 2.259999990463257
130.1049957275391 33.70100021362305 4.717999935150146
127.1060028076172 34.56000137329102 4.11899995803833
130.1369934082031 33.39400100708008 4.425000190734863
130.3029937744141 35.26900100708008 0.5809999704360962
130.1710052490234 33.20800018310547 4.019000053405762
127.1510009765625 34.56600189208984 3.394000053405762
130.3379974365234 34.99599838256836 0.2140000015497208
130.25 33.64199829101563 2.479000091552734
130.2050018310547 32.94400024414063 3.642999887466431
130.1649932861328 32.33100128173828 4.669000148773193
127.2259979248047 34.15000152587891 2.505000114440918
130.3070068359375 33.77299880981445 1.48800003528595
128.031005859375 38.99599838256836 4.11899995803833
130.3419952392578 33.55899810791016 1.095000028610229
130.2539978027344 32.21699905395508 3.344000101089478
127.7679977416992 38.59299850463867 1.144999980926514
130.3679962158203 33.26300048828125 0.8859999775886536
127.8109970092773 38.39300155639648 2.119999885559082
127.9390029907227 38.34000015258789 4.063000202178955
130.3939971923828 32.92499923706055 0.6949999928474426
130.322998046875 31.84900093078613 2.506999969482422
127.9120025634766 38.00699996948242 4.287000179290771
127.9339981079102 37.76900100708008 5.045000076293945
130.4329986572266 32.75799942016602 0.2000000029802322
127.8379974365234 37.61899948120117 3.956000089645386
127.7119979858398 37.41999816894531 2.526000022888184
130.4620056152344 32.47499847412109 -0.09000000357627869
127.9010009765625 37.45700073242188 5.169000148773193
127.7949981689453 37.28900146484375 3.960999965667725
127.8939971923828 37.17399978637695 5.59499979019165
130.5240020751953 31.85400009155273 -0.6460000276565552
130.5070037841797 31.61899948120117 -0.2489999979734421
127.7030029296875 36.87300109863281 3.440999984741211
127.9869995117188 37.06499862670898 7.13100004196167
130.5359954833984 31.34900093078613 -0.5149999856948853
127.8669967651367 36.87300109863281 5.76800012588501
127.6949996948242 36.60100173950195 3.841000080108643
127.9380035400391 36.73899841308594 7.034999847412109
127.8310012817383 36.56900024414063 5.835999965667725
127.6029968261719 36.20399856567383 3.263000011444092
127.8970031738281 36.4119987487793 7.071000099182129
127.7679977416992 36.20399856567383 5.619999885559082
127.5589981079102 35.87099838256836 3.273000001907349
127.4810028076172 35.74599838256836 2.391999959945679
127.9209976196289 36.18399810791016 7.840000152587891
127.8610000610352 36.0880012512207 7.168000221252441
127.4739990234375 35.46599960327148 2.822999954223633
127.8470001220703 35.77899932861328 7.551000118255615
127.552001953125 35.30099868774414 4.236000061035156
127.7720031738281 35.4109992980957 7.170000076293945
127.6809997558594 35.26300048828125 6.14300012588501
127.3280029296875 34.68999862670898 2.191999912261963
127.697998046875 35.01100158691406 6.872000217437744
129.4929962158203 36.85499954223633 8.045000076293945
129.4759979248047 36.58499908447266 8.484000205993652
127.6210021972656 34.88299942016602 6
129.5070037841797 36.375 8.128000259399414
129.5370025634766 36.05500030517578 7.860000133514404
129.5130004882813 35.66400146484375 8.498000144958496
129.7129974365234 38.08000183105469 3.785000085830688
129.5760040283203 35.88800048828125 7.376999855041504
129.5429992675781 35.3849983215332 8.201999664306641
129.7769927978516 38.34299850463867 2.608999967575073
129.6080017089844 35.67699813842773 6.986000061035156
129.7890014648438 37.83100128173828 2.744999885559082
129.6390075683594 35.44100189208984 6.675000190734863
129.6000061035156 34.82600021362305 7.685999870300293
127.5759963989258 34.81100082397461 5.506999969482422
129.6719970703125 35.22700119018555 6.289999961853027
129.593994140625 33.99900054931641 8.312999725341797
127.5240020751953 34.72600173950195 4.922999858856201
129.7039947509766 34.96900177001953 5.953999996185303
129.6670074462891 34.3849983215332 6.918000221252441
129.7510070800781 34.95700073242188 5.223000049591064
129.7089996337891 34.29399871826172 6.318999767303467
129.8639984130859 35.97900009155273 2.769999980926514
129.8190002441406 35.27399826049805 3.937000036239624
129.7830047607422 34.69699859619141 4.89300012588501
127.3059997558594 34.37099838256836 2.484999895095825
129.9190063476563 36.0359992980957 1.871999979019165
129.8000030517578 34.17100143432617 4.965000152587891
129.7610015869141 33.56000137329102 5.978000164031982
127.7369995117188 34.82799911499023 7.764999866485596
129.9739990234375 36.16699981689453 0.9359999895095825
129.8699951171875 34.5369987487793 3.645999908447266
129.8240051269531 33.8380012512207 4.806000232696533
127.463996887207 34.38100051879883 4.710000038146973
130.0130004882813 36.06000137329102 0.3740000128746033
129.8690032958984 33.80300140380859 4.130000114440918
