10.49009990692139 6.544640064239502 0.7967270016670227
10.19629955291748 5.992549896240234 3.979530096054077
9.883210182189941 5.189849853515625 2.661629915237427
10.51690006256104 6.726160049438477 3.647289991378784
9.886730194091797 5.10614013671875 1.077170014381409
10.97179985046387 7.709020137786865 0.8922010064125061
10.26879978179932 5.988160133361816 0.3472689986228943
10.85490036010742 7.418230056762695 0.6191409826278687
10.46220016479492 6.589089870452881 3.424439907073975
10.64570045471191 7.031199932098389 3.749979972839355
10.34749984741211 6.223659992218018 1.282840013504028
9.18887996673584 3.631439924240112 3.778889894485474
9.605959892272949 4.537189960479736 2.695090055465698
10.23149967193604 5.914150238037109 0.6671000123023987
9.688460350036621 4.629930019378662 1.081300020217896
9.98114013671875 5.281970024108887 0.1864809989929199
9.236780166625977 3.72435998916626 3.513329982757568
9.421999931335449 3.926229953765869 0.2002599984407425
10.14700031280518 5.744880199432373 1.324339985847473
10.5713996887207 6.776289939880371 1.659489989280701
9.72581958770752 4.771349906921387 1.900230050086975
9.595069885253906 4.478360176086426 2.181819915771484
10.92780017852783 7.672379970550537 3.13769006729126
10.07989978790283 5.549139976501465 0.6884520053863525
9.186420440673828 3.580199956893921 3.156239986419678
10.85000038146973 7.480629920959473 2.853559970855713
9.588379859924316 4.344860076904297 0.4223819971084595
10.60910034179688 6.935719966888428 3.485519886016846
9.335330009460449 3.768110036849976 0.8996959924697876
9.281869888305664 3.77357006072998 2.720900058746338
9.910189628601074 5.147130012512207 0.8164590001106262
10.59920024871826 6.857240200042725 2.024329900741577
10.41440010070801 6.460279941558838 3.02209997177124
10.43239974975586 6.369080066680908 0.009060700424015522
10.23729991912842 5.975329875946045 1.605239987373352
10.25479984283447 5.993879795074463 1.132920026779175
9.738260269165039 4.705339908599854 0.3872680068016052
10.1810998916626 5.908810138702393 2.977930068969727
10.61800003051758 6.838369846343994 0.4419159889221191
10.07199954986572 5.497220039367676 0.09020839631557465
9.368209838867188 4.030029773712158 3.482739925384521
9.398090362548828 3.983010053634644 1.791020035743713
10.87779998779297 7.572329998016357 3.71779990196228
9.512900352478027 4.318399906158447 2.709419965744019
10.24590015411377 6.010900020599365 1.914620041847229
10.40970039367676 6.321090221405029 0.164219006896019
10.44169998168945 6.508739948272705 2.645709991455078
10.88370037078857 7.508230209350586 1.229869961738586
9.723730087280273 4.836880207061768 3.054909944534302
10.51939964294434 6.71491003036499 3.209409952163696
10.21570014953613 5.852099895477295 0.2025109976530075
10.98490047454834 7.733759880065918 0.6778749823570251
10.14430046081543 5.786610126495361 2.262389898300171
10.67479991912842 7.009190082550049 1.289559960365295
9.379850387573242 3.895750045776367 1.181879997253418
10.02789974212646 5.551770210266113 3.044859886169434
9.721570014953613 4.78380012512207 2.264450073242188
9.57997989654541 4.382760047912598 1.280940055847168
10.57299995422363 6.735650062561035 0.586139976978302
9.624719619750977 4.607049942016602 3.103169918060303
9.807929992675781 4.967350006103516 1.907660007476807
9.385880470275879 3.825969934463501 0.02788669988512993
9.798979759216309 5.048399925231934 3.654530048370361
10.46619987487793 6.583960056304932 3.066440105438232
10.30669975280762 6.060510158538818 -0.04618920013308525
9.888469696044922 5.129280090332031 1.396980047225952
10.10630035400391 5.630360126495361 1.009899973869324
9.464879989624023 4.176509857177734 2.288749933242798
9.696439743041992 4.617109775543213 0.5875359773635864
10.86540031433105 7.510879993438721 2.660330057144165
10.34500026702881 6.260109901428223 2.199199914932251
9.601739883422852 4.400459766387939 0.7670890092849731
10.28339958190918 6.032609939575195 0.5308200120925903
9.939080238342285 5.236090183258057 1.14818000793457
9.504679679870605 4.23252010345459 1.72189998626709
10.20530033111572 5.869209766387939 1.020580053329468
9.27101993560791 3.606610059738159 0.8112069964408875
10.10709953308105 5.599790096282959 0.4093250036239624
10.20059967041016 5.981550216674805 3.537590026855469
9.994569778442383 5.518599987030029 3.902980089187622
9.481650352478027 4.164820194244385 1.537799954414368
9.64546012878418 4.466800212860107 0.1782480031251907
9.284339904785156 3.583830118179321 0.08822990208864212
9.940629959106445 5.259210109710693 1.483800053596497
10.56550025939941 6.750909805297852 1.382410049438477
10.25570011138916 6.061530113220215 2.482690095901489
9.503740310668945 4.122029781341553 0.1653279960155487
9.461440086364746 4.074260234832764 0.9362220168113708
9.892499923706055 5.065340042114258 0.1613460034132004
10.76290035247803 7.230160236358643 1.556390047073364
9.496350288391113 4.292079925537109 2.902060031890869
10.80770015716553 7.408740043640137 3.724730014801025
9.691829681396484 4.567550182342529 -0.003504379885271192
10.5068998336792 6.709879875183105 3.826950073242188
9.737680435180664 4.761419773101807 1.290030002593994
10.55830001831055 6.673470020294189 -0.0315065011382103
10.71240043640137 7.148409843444824 2.640049934387207
9.38916015625 3.979589939117432 2.043420076370239
10.62220001220703 6.930900096893311 2.524749994277954
10.7834997177124 7.338220119476318 3.295330047607422
10.03069972991943 5.45398998260498 1.110530018806458
10.65299987792969 6.912630081176758 0.181415006518364
9.682939529418945 4.796390056610107 3.974179983139038
10.9310998916626 7.627930164337158 1.421329975128174
10.04080009460449 5.60752010345459 3.538969993591309
10.01809978485107 5.400519847869873 0.6958320140838623
9.295209884643555 3.768090009689331 2.208590030670166
10.68280029296875 7.048810005187988 1.825999975204468
10.54699993133545 6.737959861755371 2.151190042495728
9.33611011505127 3.835720062255859 1.798720002174377
10.79360008239746 7.290120124816895 1.175909996032715
9.893190383911133 5.088689804077148 0.5240640044212341
10.43389987945557 6.546539783477783 3.989320039749146
10.74289989471436 7.154940128326416 0.8113539814949036
9.719770431518555 4.798019886016846 2.565829992294312
10.3612003326416 6.312119960784912 2.504390001296997
10.52519989013672 6.738860130310059 3.478019952774048
9.378290176391602 3.841739892959595 0.4927769899368286
10.02779960632324 5.466619968414307 1.460899949073792
9.901320457458496 5.253809928894043 3.042089939117432
10.34850025177002 6.209589958190918 0.9353860020637512
10.38029956817627 6.36575984954834 2.695489883422852
9.502670288085938 4.152170181274414 0.631712019443512
9.989230155944824 5.338620185852051 0.8333659768104553
10.69779968261719 7.130529880523682 3.10851001739502
10.23340034484863 5.94959020614624 1.277549982070923
9.348589897155762 3.930550098419189 2.712130069732666
10.74139976501465 7.22504997253418 2.872100114822388
9.244939804077148 3.723619937896729 3.236170053482056
9.68140983581543 4.676529884338379 2.073189973831177
9.615960121154785 4.575819969177246 2.933290004730225
10.58730030059814 6.861430168151855 2.866849899291992
10.90610027313232 7.593470096588135 2.218480110168457
10.8484001159668 7.435379981994629 1.578169941902161
10.4596996307373 6.449450016021729 0.3151359856128693
10.48639965057373 6.52908992767334 0.6482440233230591
10.75870037078857 7.200300216674805 1.013200044631958
10.36400032043457 6.22599983215332 0.4950520098209381
9.584460258483887 4.551030158996582 3.717780113220215
9.876999855041504 5.125840187072754 1.804700016975403
9.725899696350098 4.704329967498779 0.8377439975738525
10.03530025482178 5.532219886779785 2.341140031814575
10.75529956817627 7.290470123291016 3.85014009475708
9.242759704589844 3.591579914093018 1.512539982795715
10.32800006866455 6.269659996032715 3.311330080032349
9.266289710998535 3.716249942779541 2.438980102539063
10.69229984283447 7.000879764556885 0.006075200159102678
10.2701997756958 5.979249954223633 0.1034549996256828
10.67829990386963 7.060299873352051 2.432199954986572
9.545960426330566 4.215169906616211 0.02998239919543266
10.03460025787354 5.510270118713379 1.965739965438843
9.438690185546875 4.203249931335449 3.606260061264038
9.807600021362305 4.859549999237061 0.1663150042295456
10.13319969177246 5.841010093688965 3.888079881668091
9.83905029296875 5.130139827728271 3.444070100784302
9.44795036315918 4.013279914855957 0.5367230176925659
10.17930030822754 5.835669994354248 1.587610006332397
10.91749954223633 7.643410205841064 2.97979998588562
10.25899982452393 6.126830101013184 3.723589897155762
10.3931999206543 6.379300117492676 2.306220054626465
10.48110008239746 6.534530162811279 1.062729954719543
9.962050437927246 5.225269794464111 0.007211599964648485
9.957900047302246 5.416399955749512 3.590919971466064
10.3306999206543 6.25724983215332 2.890830039978027
10.13689994812012 5.753220081329346 1.952700018882751
9.343879699707031 3.733860015869141 0.1613029986619949
10.74139976501465 7.14201021194458 0.5711740255355835
9.462719917297363 4.184679985046387 2.484110116958618
10.15709972381592 5.861539840698242 3.166889905929565
9.262689590454102 3.799000024795532 3.710710048675537
10.94869995117188 7.703030109405518 2.503750085830688
9.505780220031738 4.18848991394043 1.044790029525757
9.981889724731445 5.300650119781494 0.480116993188858
9.293510437011719 3.649420022964478 0.659820020198822
10.61089992523193 6.955900192260742 3.911240100860596
10.32839965820313 6.191420078277588 1.568549990653992
10.80140018463135 7.273079872131348 0.1912209987640381
10.82409954071045 7.424489974975586 3.011909961700439
9.358180046081543 3.993429899215698 3.291450023651123
9.521080017089844 4.291409969329834 2.014050006866455
10.46770000457764 6.562550067901611 2.457760095596313
10.99969959259033 7.763309955596924 0.4814769923686981
9.837770462036133 5.076560020446777 2.558350086212158
10.38220024108887 6.313119888305664 1.418319940567017
10.46940040588379 6.53764009475708 1.775099992752075
10.88729953765869 7.584539890289307 3.381680011749268
10.34239959716797 6.33135986328125 3.947479963302612
9.23993968963623 3.623059988021851 2.02374005317688
10.08409976959229 5.715099811553955 3.661180019378662
9.748310089111328 4.903759956359863 3.208309888839722
9.622500419616699 4.62028980255127 3.400569915771484
9.502030372619629 4.374169826507568 3.9617600440979
10.89700031280518 7.621119976043701 3.853499889373779
10.58850002288818 6.882269859313965 3.342259883880615
9.863019943237305 5.117879867553711 2.239130020141602
9.63976001739502 4.546350002288818 1.591070055961609
10.6451997756958 6.929500102996826 1.067720055580139
9.903280258178711 5.274149894714355 3.326879978179932
10.61050033569336 6.891310214996338 2.210860013961792
9.511850357055664 4.225790023803711 1.373520016670227
9.382599830627441 3.917220115661621 1.388239979743958
10.8863000869751 7.539760112762451 2.013989925384521
10.6899995803833 7.011990070343018 0.4223569929599762
9.95028018951416 5.321780204772949 2.182240009307861
9.76099967956543 4.778349876403809 0.6709920167922974
10.50780010223389 6.676350116729736 2.925430059432983
10.68120002746582 7.104819774627686 3.485450029373169
10.24779987335205 6.081480026245117 3.309839963912964
10.08590030670166 5.699339866638184 3.265690088272095
9.883689880371094 5.254779815673828 3.806529998779297
9.823390007019043 4.948140144348145 0.9830800294876099
10.20450019836426 5.93451976776123 2.367330074310303
10.24689960479736 6.056169986724854 2.814929962158203
9.558469772338867 4.46265983581543 3.280580043792725
10.06859970092773 5.554130077362061 1.273229956626892
10.33380031585693 6.30088996887207 3.708039999008179
10.77359962463379 7.287459850311279 2.467439889907837
10.76620006561279 7.251319885253906 1.933339953422546
9.93850040435791 5.318319797515869 2.62335991859436
9.79463005065918 4.995409965515137 2.913919925689697
10.53470039367676 6.683279991149902 1.529710054397583
9.804719924926758 4.931469917297363 1.44216001033783
9.663979530334473 4.562769889831543 0.9537879824638367
9.239049911499023 3.697809934616089 3.070519924163818
9.382980346679688 3.891040086746216 1.013000011444092
10.88309955596924 7.473309993743896 0.2481710016727448
10.46290016174316 6.597839832305908 3.594980001449585
9.78339958190918 4.899159908294678 1.746960043907166
9.558420181274414 4.433199882507324 2.82273006439209
9.416020393371582 4.110909938812256 3.021509885787964
10.32689952850342 6.166600227355957 1.121799945831299
9.443630218505859 4.016329765319824 0.7250310182571411
10.22109985351563 5.896520137786865 0.8110550045967102
10.09179973602295 5.685349941253662 2.716510057449341
9.459230422973633 4.263669967651367 3.795860052108765
10.55270004272461 6.702509880065918 0.9609950184822083
10.722900390625 7.128729820251465 1.398959994316101
9.656200408935547 4.565969944000244 1.288220047950745
9.582460403442383 4.341720104217529 0.5866609811782837
10.52200031280518 6.700620174407959 2.695879936218262
9.970190048217773 5.419390201568604 3.108740091323853
10.01910018920898 5.50409984588623 2.53695011138916
9.566100120544434 4.384399890899658 1.801519989967346
10.89850044250488 7.518990039825439 0.4861040115356445
10.17920017242432 5.845809936523438 1.791159987449646
9.18241024017334 3.604029893875122 3.609819889068604
10.375 6.314260005950928 1.816540002822876
10.96809959411621 7.672049999237061 0.01866140030324459
10.78600025177002 7.228549957275391 -0.000393758004065603
10.51019954681396 6.643539905548096 1.982220053672791
10.96510028839111 7.721099853515625 1.81086003780365
9.740670204162598 4.918769836425781 3.767849922180176
10.29300022125244 6.131330013275146 2.08489990234375
9.667599678039551 4.736199855804443 3.569390058517456
9.324150085449219 3.884040117263794 2.870429992675781
10.48050022125244 6.545660018920898 1.348250031471252
9.724579811096191 4.658929824829102 0.1801760047674179
10.67450046539307 7.067349910736084 2.877029895782471
9.420229911804199 3.932149887084961 0.3410930037498474
9.453189849853516 4.120180130004883 1.873860001564026
10.44330024719238 6.418290138244629 0.5021719932556152
9.358869552612305 3.925250053405762 2.292200088500977
9.655830383300781 4.649919986724854 2.614969968795776
10.93929958343506 7.635250091552734 1.033550024032593
9.846940040588379 5.067500114440918 2.030529975891113
10.65789985656738 6.942080020904541 0.6171849966049194
9.974069595336914 5.347939968109131 1.638149976730347
10.13939952850342 5.667409896850586 0.2101649940013885
9.579819679260254 4.309909820556641 0.2130970060825348
10.82120037078857 7.389009952545166 2.133409976959229
9.944160461425781 5.221069812774658 0.6803749799728394
10.93599987030029 7.645309925079346 1.598909974098206
9.773929595947266 4.913609981536865 2.357429981231689
10.01159954071045 5.548910140991211 3.721630096435547
10.16609954833984 5.756309986114502 0.6677690148353577
10.79769992828369 7.283490180969238 0.717631995677948
10.71759986877441 7.197030067443848 3.691659927368164
9.285799980163574 3.867089986801147 3.913269996643066
9.301589965820313 3.715100049972534 1.279099941253662
10.19569969177246 5.899149894714355 2.07273006439209
9.923620223999023 5.151869773864746 0.3479799926280975
10.35859966278076 6.191309928894043 0.04340380057692528
10.67479991912842 7.037370204925537 2.032130002975464
10.39480018615723 6.433320045471191 3.474100112915039
9.699040412902832 4.699379920959473 1.770349979400635
9.456689834594727 4.189420223236084 2.764909982681274
9.581640243530273 4.375870227813721 1.119320034980774
9.244589805603027 3.61847996711731 1.813459992408752
10.27159976959229 6.026710033416748 0.9841939806938171
9.85612964630127 5.040070056915283 1.201210021972656
9.298480033874512 3.864949941635132 3.457190036773682
10.23200035095215 6.034910202026367 3.110100030899048
10.10910034179688 5.660789966583252 1.453809976577759
9.865530014038086 5.156620025634766 2.812000036239624
10.62170028686523 6.889659881591797 1.484240055084229
10.39299964904785 6.368340015411377 2.065700054168701
10.11149978637695 5.719659805297852 2.477720022201538
10.80920028686523 7.40546989440918 3.511140108108521
9.687800407409668 4.74321985244751 2.904309988021851
9.843979835510254 4.983709812164307 0.7537209987640381
10.55189990997314 6.674409866333008 0.3520509898662567
9.199020385742188 3.565279960632324 2.552799940109253
9.45065975189209 4.212110042572021 3.316629886627197
10.57719993591309 6.820509910583496 2.421050071716309
10.18159961700439 5.94536018371582 3.712430000305176
9.539649963378906 4.355080127716064 2.306829929351807
9.399720191955566 4.136980056762695 3.979099988937378
9.424880027770996 4.036930084228516 1.649029970169067
9.362039566040039 3.822139978408813 0.7597939968109131
9.650569915771484 4.618989944458008 2.32135009765625
10.30319976806641 6.180759906768799 2.632560014724731
10.35319995880127 6.318840026855469 3.085109949111938
10.03279972076416 5.412179946899414 0.2746280133724213
10.51200008392334 6.728390216827393 3.988219976425171
9.969160079956055 5.316410064697266 1.289389967918396
10.1048002243042 5.728799819946289 2.969769954681396
9.877739906311035 5.229360103607178 3.598769903182983
10.05799961090088 5.506229877471924 0.8652520179748535
10.7234001159668 7.121679782867432 1.177240014076233
10.917799949646 7.662459850311279 3.604720115661621
9.767399787902832 4.747479915618896 -0.06442079693078995
9.338479995727539 3.705039978027344 -0.04878769814968109
10.71969985961914 7.075769901275635 0.2147819995880127
10.69769954681396 7.160280227661133 3.973200082778931
10.68140029907227 7.009379863739014 0.8851119875907898
10.20390033721924 5.833889961242676 0.4057030081748962
9.665180206298828 4.551839828491211 0.7431229948997498
9.935159683227539 5.384640216827393 3.986860036849976
9.759980201721191 4.948070049285889 3.497519969940186
9.325050354003906 3.821870088577271 1.971590042114258
10.40690040588379 6.344620227813721 0.8123570084571838
9.543339729309082 4.440460205078125 3.488790035247803
10.95779991149902 7.711949825286865 2.082200050354004
10.9306001663208 7.667570114135742 2.749000072479248
10.71230030059814 7.113580226898193 1.672999978065491
9.941720008850098 5.2882399559021 1.947149991989136
10.48120021820068 6.491509914398193 0.09290239959955215
10.28359985351563 6.075550079345703 1.386729955673218
9.611260414123535 4.505599975585938 2.009040117263794
10.93210029602051 7.60851001739502 0.7433379888534546
9.727009773254395 4.749229907989502 1.501880049705505
10.21269989013672 5.834229946136475 -0.001145899994298816
10.5797004699707 6.852359771728516 3.097970008850098
10.14900016784668 5.855629920959473 3.432430028915405
9.520919799804688 4.361539840698242 3.07955002784729
10.98040008544922 7.710279941558838 0.2819969952106476
10.79959964752197 7.358980178833008 2.770679950714111
10.07870006561279 5.626949787139893 2.185519933700562
9.655369758605957 4.506969928741455 0.4221909940242767
10.25119972229004 6.117849826812744 3.925849914550781
9.44497013092041 4.053909778594971 1.208279967308044
10.81620025634766 7.352650165557861 1.411010026931763
9.893119812011719 5.055819988250732 -0.02371330000460148
10.43299961090088 6.536049842834473 3.79269003868103
10.44929981231689 6.551400184631348 3.243299961090088
10.72379970550537 7.161540031433105 2.246929883956909
9.505060195922852 4.142079830169678 0.4053600132465363
9.206939697265625 3.606659889221191 2.858609914779663
10.30659961700439 6.175449848175049 2.340049982070923
10.70689964294434 7.157770156860352 3.276360034942627
9.193129539489746 3.610369920730591 3.352230072021484
9.349960327148438 3.921210050582886 2.533479928970337
9.762849807739258 4.907279968261719 2.689909934997559
9.842419624328613 5.123040199279785 3.178819894790649
9.462800025939941 4.012440204620361 0.02139659970998764
10.43210029602051 6.440839767456055 1.600870013237
9.283550262451172 3.652930021286011 1.026090025901794
10.58979988098145 6.803030014038086 1.229689955711365
10.28950023651123 6.055650234222412 0.6951209902763367
10.97109985351563 7.719110012054443 1.269760012626648
9.80836009979248 5.088150024414063 3.967010021209717
9.993659973144531 5.459869861602783 2.832390069961548
9.945520401000977 5.241469860076904 0.974137008190155
10.07409954071045 5.592209815979004 1.737630009651184
10.80440044403076 7.288959980010986 0.4201680123806
10.47420024871826 6.56935977935791 2.25189995765686
9.37775993347168 4.066249847412109 3.687449932098389
10.63129997253418 6.958399772644043 2.680150032043457
9.749690055847168 4.838230133056641 2.063230037689209
10.81960010528564 7.443160057067871 3.936429977416992
10.171799659729 5.873869895935059 2.706549882888794
9.625510215759277 4.404669761657715 -0.02762429974973202
10.06350040435791 5.68287992477417 3.97435998916626
9.325849533081055 3.792999982833862 1.548380017280579
9.743430137634277 4.760459899902344 1.056669950485229
9.662929534912109 4.704319953918457 3.225169897079468
10.55340003967285 6.695119857788086 0.7444329857826233
10.0605001449585 5.494209766387939 0.5409860014915466
9.445639610290527 4.11939001083374 2.12202000617981
9.544509887695313 4.267439842224121 0.838778018951416
10.84160041809082 7.426199913024902 1.791159987449646
10.41049957275391 6.369939804077148 1.173619985580444
9.159709930419922 3.576159954071045 3.954669952392578
9.562370300292969 4.428730010986328 2.609790086746216
10.6077995300293 6.798329830169678 0.07560840249061584
10.28999996185303 6.188769817352295 3.496109962463379
9.86931037902832 5.094810009002686 1.589239954948425
10.05309963226318 5.442920207977295 -0.06056249886751175
10.85449981689453 7.501399993896484 3.178070068359375
10.28400039672852 6.095860004425049 1.789980053901672
10.15750026702881 5.760489940643311 1.142680048942566
10.86600017547607 7.504479885101318 2.418200016021729
10.43540000915527 6.500659942626953 2.808739900588989
10.83679962158203 7.388140201568604 1.011860013008118
9.330909729003906 3.917399883270264 3.118690013885498
9.997949600219727 5.49940013885498 3.38850998878479
9.554309844970703 4.340199947357178 1.561980009078979
10.33950042724609 6.156380176544189 0.2829619944095612
9.317660331726074 3.688230037689209 0.4000369906425476
9.921099662780762 5.265600204467773 2.415129899978638
10.589599609375 6.825719833374023 1.806229948997498
9.600910186767578 4.600470066070557 3.895859956741333
9.810859680175781 4.883870124816895 0.431315004825592
10.59809970855713 6.915949821472168 3.641999959945679
10.87899971008301 7.452839851379395 -0.05521399900317192
9.226019859313965 3.605770111083984 2.236200094223022
6.424489974975586 8.360679626464844 5.828629970550537
6.513619899749756 8.901169776916504 4.985360145568848
6.511970043182373 8.891169548034668 5.157320022583008
6.424369812011719 8.359990119934082 5.519919872283936
6.463759899139404 8.598810195922852 5.463190078735352
6.527860164642334 8.987509727478027 5.375879764556885
6.456049919128418 8.55204963684082 5.93828010559082
6.487249851226807 8.741259574890137 5.871300220489502
6.428500175476074 8.385029792785645 5.655290126800537
6.499899864196777 8.817990303039551 5.324960231781006
6.534780025482178 9.02949047088623 5.176859855651855
6.537000179290771 9.042960166931152 5.81190013885498
6.38700008392334 8.133359909057617 5.85290002822876
6.520050048828125 8.940150260925293 5.986559867858887
6.514359951019287 8.905630111694336 5.077330112457275
6.480939865112305 8.70298957824707 5.607359886169434
6.51777982711792 8.926360130310059 5.524199962615967
6.420989990234375 8.339480400085449 5.746709823608398
6.526450157165527 8.97898006439209 4.92303991317749
6.456389904022217 8.554140090942383 5.270820140838623
6.421629905700684 8.343390464782715 5.938310146331787
6.480319976806641 8.699259757995605 5.43818998336792
6.534409999847412 9.027219772338867 4.669169902801514
6.51648998260498 8.918580055236816 5.834640026092529
6.513949871063232 8.903180122375488 5.416460037231445
6.465879917144775 8.611700057983398 5.771500110626221
6.505239963531494 8.850359916687012 5.622640132904053
6.475080013275146 8.667460441589355 5.148600101470947
6.394869804382324 8.181079864501953 5.749330043792725
6.535470008850098 9.033639907836914 5.497389793395996
6.438739776611328 8.44711971282959 5.555709838867188
6.461530208587646 8.585309982299805 5.579259872436523
6.502620220184326 8.834480285644531 5.218550205230713
6.507760047912598 8.865639686584473 4.891499996185303
6.501589775085449 8.828220367431641 5.931900024414063
6.414040088653564 8.297360420227051 5.635139942169189
6.439410209655762 8.451169967651367 5.87677001953125
6.477449893951416 8.681859970092773 5.296189785003662
6.493120193481445 8.776840209960938 5.757229804992676
6.536280155181885 9.038599967956543 5.924880027770996
6.530419826507568 9.003009796142578 5.045869827270508
6.446189880371094 8.492270469665527 5.68943977355957
6.495840072631836 8.793339729309082 5.50616979598999
6.493949890136719 8.781880378723145 5.05309009552002
6.472229957580566 8.650179862976074 5.952330112457275
6.528709888458252 8.992690086364746 5.278950214385986
6.449649810791016 8.513250350952148 5.40326976776123
6.402500152587891 8.227390289306641 5.885990142822266
6.531459808349609 9.009349822998047 4.792570114135742
6.529520034790039 8.997590065002441 5.694769859313965
8.395730018615723 7.674190044403076 5.7640700340271
8.53262996673584 7.929699897766113 5.324039936065674
8.53816032409668 7.940030097961426 5.915030002593994
8.44966983795166 7.774849891662598 5.862919807434082
8.601229667663574 8.057760238647461 4.961150169372559
8.627400398254395 8.106610298156738 5.823729991912842
8.564990043640137 7.990109920501709 5.387259960174561
8.468959808349609 7.810860157012939 5.390279769897461
8.549799919128418 7.961750030517578 5.61407995223999
8.348549842834473 7.586120128631592 5.766240119934082
8.559829711914063 7.980470180511475 5.830629825592041
8.649809837341309 8.148429870605469 4.663740158081055
8.672380447387695 8.190560340881348 4.986710071563721
8.454409599304199 7.78371000289917 5.561079978942871
8.666449546813965 8.179479598999023 5.898940086364746
8.669480323791504 8.185150146484375 5.655920028686523
8.64171028137207 8.133310317993164 5.392489910125732
8.536009788513184 7.936009883880615 5.742469787597656
8.478779792785645 7.82919979095459 5.277569770812988
8.61223030090332 8.078280448913574 5.181039810180664
8.608329772949219 8.071000099182129 4.740769863128662
8.43278980255127 7.743350028991699 5.736040115356445
8.667019844055176 8.180549621582031 5.266610145568848
8.529069900512695 7.923059940338135 5.030200004577637
8.550430297851563 7.962930202484131 5.24878978729248
8.311100006103516 7.516220092773438 5.624720096588135
8.4310302734375 7.74006986618042 5.462379932403564
8.63131046295166 8.113900184631348 4.884829998016357
8.318639755249023 7.530280113220215 5.869369983673096
8.59844970703125 8.052559852600098 5.532579898834229
8.24940013885498 7.401040077209473 5.921549797058105
8.678489685058594 8.201970100402832 5.770569801330566
8.589489936828613 8.035840034484863 5.063379764556885
8.67317008972168 8.19202995300293 4.540840148925781
8.419910430908203 7.71930980682373 5.300429821014404
8.374659538269043 7.634850025177002 5.656720161437988
8.507260322570801 7.882349967956543 5.842959880828857
8.602399826049805 8.059929847717285 5.701260089874268
8.601490020751953 8.058239936828613 5.328239917755127
8.512669563293457 7.892459869384766 5.413300037384033
8.488189697265625 7.8467698097229 5.655210018157959
8.25236988067627 7.406579971313477 5.745920181274414
8.559619903564453 7.980090141296387 4.909080028533936
8.355810165405273 7.59965991973877 5.467659950256348
8.670929908752441 8.187840461730957 5.125969886779785
8.595970153808594 8.047929763793945 5.902569770812988
8.486590385437012 7.843780040740967 5.170040130615234
8.668279647827148 8.182900428771973 5.519750118255615
8.674249649047852 8.194040298461914 4.76678991317749
8.389410018920898 7.662370204925537 5.855140209197998
8.256779670715332 8.369529724121094 5.471620082855225
7.761350154876709 8.566320419311523 5.220009803771973
7.743889808654785 8.573260307312012 4.892819881439209
8.277219772338867 8.361410140991211 4.669760227203369
8.400010108947754 8.312640190124512 5.902699947357178
7.372039794921875 8.720959663391113 4.708789825439453
8.018540382385254 8.464159965515137 5.567820072174072
7.534639835357666 8.656370162963867 5.229549884796143
8.126509666442871 8.421279907226563 4.795390129089355
7.783490180969238 8.557530403137207 4.757369995117188
6.850800037384033 8.928000450134277 4.866869926452637
7.708759784698486 8.587209701538086 5.034430027008057
8.614640235900879 8.227390289306641 4.814260005950928
7.038259983062744 8.853540420532227 5.948959827423096
8.385660171508789 8.318340301513672 5.618850231170654
6.8886399269104 8.912969589233398 5.631569862365723
8.503470420837402 8.271550178527832 4.566609859466553
7.692729949951172 8.59358024597168 5.860849857330322
8.001370429992676 8.470990180969238 5.912300109863281
8.326970100402832 8.341650009155273 4.972529888153076
8.204360008239746 8.390350341796875 5.759719848632813
6.751349925994873 8.967499732971191 5.555520057678223
6.88254976272583 8.915390014648438 5.29256010055542
8.406450271606445 8.310079574584961 5.197060108184814
6.714029788970947 8.982330322265625 5.971620082855225
7.212329864501953 8.78439998626709 5.788000106811523
6.818620204925537 8.940779685974121 4.599899768829346
7.670549869537354 8.602390289306641 4.633180141448975
7.582630157470703 8.637310028076172 4.986820220947266
6.974070072174072 8.879039764404297 4.784150123596191
6.912109851837158 8.903650283813477 5.807330131530762
7.766580104827881 8.564240455627441 5.364240169525146
8.630929946899414 8.220919609069824 5.703450202941895
7.703090190887451 8.589460372924805 5.722000122070313
7.889080047607422 8.515589714050293 5.528960227966309
7.383289813995361 8.716489791870117 5.320630073547363
8.509779930114746 8.269040107727051 5.576250076293945
6.594369888305664 9.02985954284668 5.782169818878174
6.745510101318359 8.969820022583008 4.960740089416504
7.272280216217041 8.760589599609375 4.837019920349121
8.606989860534668 8.230420112609863 5.363059997558594
7.358099937438965 8.726499557495117 5.745999813079834
7.431859970092773 8.697199821472168 5.931439876556396
7.950860023498535 8.491049766540527 4.771949768066406
6.57105016708374 9.039119720458984 5.116469860076904
7.137259960174561 8.814220428466797 5.033840179443359
7.482069969177246 8.677260398864746 5.102819919586182
8.026379585266113 8.461050033569336 5.759290218353271
8.171990394592285 8.403209686279297 5.322289943695068
8.090950012207031 8.435400009155273 5.15378999710083
7.61830997467041 8.623140335083008 4.784609794616699
7.854859828948975 8.529179573059082 5.720160007476807
8.485630035400391 8.278630256652832 4.736859798431396
7.577509880065918 8.639340400695801 5.364299774169922
7.538169860839844 8.654970169067383 5.56859016418457
8.471420288085938 8.284270286560059 5.018420219421387
7.228020191192627 8.778160095214844 4.595270156860352
6.583290100097656 9.034259796142578 5.59867000579834
7.89093017578125 8.514849662780762 5.175439834594727
6.975930213928223 8.878299713134766 4.594679832458496
7.165420055389404 8.803030014038086 5.410669803619385
8.376469612121582 8.321990013122559 5.760709762573242
6.753759860992432 8.966549873352051 5.137839794158936
6.552949905395508 9.046310424804688 4.651869773864746
8.071260452270508 8.443220138549805 4.956339836120605
8.6256103515625 8.223030090332031 5.186840057373047
6.907410144805908 8.905520439147949 4.992209911346436
6.929540157318115 8.896730422973633 5.452859878540039
8.267270088195801 8.365360260009766 4.824170112609863
6.569169998168945 9.039870262145996 4.913760185241699
7.305570125579834 8.747360229492188 5.152390003204346
8.669699668884277 8.205519676208496 4.65408992767334
7.477479934692383 8.679080009460449 4.589479923248291
7.97992992401123 8.479499816894531 5.389309883117676
6.758259773254395 8.964759826660156 5.727799892425537
6.56013011932373 9.043459892272949 5.981090068817139
7.542580127716064 8.653220176696777 5.807270050048828
8.576820373535156 8.242409706115723 5.852819919586182
7.64778995513916 8.611430168151855 5.159749984741211
7.057400226593018 8.845939636230469 5.698579788208008
8.407039642333984 8.309849739074707 5.410510063171387
8.205380439758301 8.389949798583984 5.91519021987915
8.072910308837891 8.442560195922852 4.625820159912109
7.820479869842529 8.542840003967285 4.588290214538574
7.116789817810059 8.822349548339844 4.822480201721191
7.240709781646729 8.773119926452637 5.954949855804443
7.728419780731201 8.579400062561035 5.516220092773438
7.03564977645874 8.854579925537109 5.219510078430176
8.662260055541992 8.208470344543457 4.943910121917725
7.868420124053955 8.52379035949707 4.925300121307373
8.170129776000977 8.403949737548828 5.597189903259277
8.252249717712402 8.371330261230469 5.111899852752686
7.346660137176514 8.731040000915527 5.536159992218018
6.637650012969971 9.012669563293457 5.380360126495361
6.773250102996826 8.958809852600098 4.751329898834229
7.819049835205078 8.543399810791016 5.924039840698242
8.340760231018066 8.336170196533203 4.546050071716309
6.872509956359863 8.919380187988281 5.968210220336914
8.669679641723633 8.205519676208496 5.539309978485107
7.464660167694092 8.684169769287109 4.896969795227051
4.673890113830566 8.863860130310059 2.968739986419678
4.245520114898682 7.795820236206055 2.621259927749634
4.99507999420166 9.468979835510254 3.390120029449463
5.115660190582275 9.425649642944336 4.561170101165771
4.324090003967285 7.422190189361572 5.76269006729126
3.810509920120239 6.393060207366943 3.730930089950562
4.719409942626953 8.386599540710449 5.845369815826416
4.6496901512146 8.141940116882324 6.604889869689941
4.299630165100098 7.73799991607666 3.948060035705566
3.593889951705933 5.986100196838379 0.6163610219955444
5.100580215454102 9.617039680480957 3.568269968032837
4.132329940795898 7.043300151824951 4.954219818115234
3.643589973449707 6.011879920959473 2.384310007095337
3.837409973144531 6.299580097198486 4.404799938201904
5.103909969329834 9.792819976806641 0.6633909940719604
4.474339962005615 8.380120277404785 2.611740112304688
3.972239971160889 6.912980079650879 3.609790086746216
5.15015983581543 9.539230346679688 4.333049774169922
4.441050052642822 7.871079921722412 5.032670021057129
4.137639999389648 7.271679878234863 4.046949863433838
4.065559864044189 7.311850070953369 2.828150033950806
3.629760026931763 6.11693000793457 0.8407589793205261
4.479599952697754 8.119139671325684 4.33597993850708
4.529170036315918 8.446980476379395 3.306309938430786
4.492330074310303 8.311690330505371 3.554610013961792
3.960890054702759 6.780129909515381 3.986799955368042
5.317389965057373 10.05959987640381 2.895580053329468
4.211689949035645 7.347770214080811 4.618859767913818
3.724669933319092 6.482600212097168 0.5181760191917419
4.613100051879883 8.168889999389648 5.675000190734863
4.088769912719727 7.028629779815674 4.475719928741455
3.655280113220215 6.146729946136475 1.812100052833557
4.238669872283936 7.739140033721924 2.991580009460449
3.982530117034912 6.872099876403809 3.879499912261963
3.711679935455322 6.422510147094727 1.083760023117065
3.663880109786987 5.922190189361572 3.500169992446899
4.030010223388672 6.788060188293457 4.75432014465332
3.829070091247559 6.531099796295166 3.443969964981079
4.351500034332275 7.646850109100342 4.993790149688721
4.962940216064453 9.547309875488281 2.045900106430054
4.345190048217773 7.875669956207275 3.865279912948608
4.108329772949219 7.459169864654541 2.464760065078735
4.795949935913086 8.707790374755859 4.943049907684326
4.63401985168457 8.375280380249023 4.838150024414063
4.81194019317627 8.674679756164551 5.303140163421631
5.1805100440979 9.939080238342285 1.872159957885742
3.795279979705811 6.595719814300537 2.735120058059692
4.271520137786865 7.851719856262207 2.753370046615601
4.794459819793701 9.19795036315918 2.506439924240112
3.614749908447266 6.016860008239746 1.183650016784668
4.576710224151611 8.609040260314941 3.026789903640747
5.00432014465332 9.589389801025391 1.419980049133301
4.426449775695801 7.615340232849121 6.317080020904541
4.311789989471436 7.82234001159668 3.687060117721558
3.724090099334717 6.093729972839355 3.777760028839111
5.119050025939941 9.838939666748047 0.319007009267807
4.468699932098389 8.18120002746582 3.9200599193573
3.92113995552063 6.7288498878479 3.747119903564453
4.101369857788086 7.195759773254395 3.935129880905151
4.029689788818359 7.058889865875244 3.668720006942749
4.660470008850098 8.497859954833984 4.547080039978027
4.491320133209229 8.428070068359375 2.473129987716675
4.888740062713623 8.794309616088867 5.576429843902588
5.102280139923096 9.801839828491211 1.285979986190796
4.596590042114258 8.568719863891602 3.558170080184937
4.802440166473389 8.891189575195313 4.173480033874512
5.153409957885742 9.95464038848877 0.4241220057010651
4.254049777984619 7.828539848327637 2.472749948501587
5.253339767456055 9.850299835205078 3.717570066452026
4.550139904022217 8.25940990447998 4.475279808044434
3.666929960250854 6.234889984130859 1.343850016593933
4.37421989440918 7.851270198822021 4.33853006362915
3.70878005027771 6.14316987991333 3.28941011428833
3.942600011825562 6.985050201416016 2.92467999458313
4.558889865875244 7.966450214385986 6.183310031890869
4.779809951782227 8.472840309143066 6.252130031585693
4.911580085754395 9.18986988067627 3.869999885559082
4.933050155639648 9.13617992401123 4.256370067596436
3.905770063400269 6.762549877166748 3.455169916152954
4.464890003204346 8.293149948120117 3.245209932327271
3.737839937210083 6.432209968566895 2.523550033569336
4.761680126190186 9.096850395202637 2.822390079498291
5.238609790802002 10.13510036468506 1.004879951477051
4.54265022277832 8.168840408325195 4.808509826660156
3.981080055236816 7.014890193939209 3.282520055770874
5.194469928741455 9.881389617919922 2.847970008850098
3.599349975585938 5.873960018157959 1.67782998085022
4.482230186462402 7.873479843139648 5.548250198364258
5.10345983505249 9.555399894714355 3.869829893112183
4.242899894714355 7.457089900970459 4.522719860076904
5.231589794158936 10.14890003204346 0.7884809970855713
5.064060211181641 9.284520149230957 4.768439769744873
4.695680141448975 8.285840034484863 6.219329833984375
5.038660049438477 9.620499610900879 0.8747900128364563
4.278150081634521 7.610410213470459 4.271940231323242
4.550839900970459 8.007010459899902 5.757649898529053
4.772669792175293 9.07649040222168 3.107399940490723
5.07190990447998 9.738479614257813 1.41349995136261
5.257579803466797 9.822019577026367 3.921890020370483
4.666769981384277 8.634369850158691 4.010310173034668
5.268280029296875 10.00290012359619 2.73757004737854
4.190239906311035 7.590869903564453 3.137109994888306
4.400829792022705 8.17710018157959 2.836709976196289
3.885940074920654 6.805729866027832 3.044559955596924
3.7430100440979 6.327849864959717 3.083179950714111
4.369850158691406 8.120039939880371 2.51924991607666
5.155960083007813 9.752809524536133 3.341039896011353
5.020830154418945 9.657449722290039 2.186559915542603
5.020080089569092 9.652500152587891 2.36269998550415
3.744469881057739 6.223830223083496 3.523550033569336
4.18517017364502 7.235459804534912 4.779540061950684
5.213570117950439 9.879489898681641 3.095249891281128
4.531949996948242 8.027520179748535 5.37798023223877
4.17825984954834 7.507130146026611 3.451509952545166
4.720379829406738 9.01554012298584 2.623889923095703
4.192329883575439 7.360219955444336 4.329959869384766
4.29518985748291 7.580550193786621 4.61076021194458
4.330349922180176 7.998720169067383 2.811559915542603
4.109859943389893 7.143149852752686 4.256649971008301
5.157770156860352 9.99960994720459 0.06248589977622032
5.316450119018555 10.03779983520508 3.083889961242676
4.062809944152832 7.249189853668213 3.182440042495728
4.636569976806641 8.78909969329834 2.802779912948608
3.613719940185547 5.885059833526611 2.115789890289307
4.465079784393311 7.956989765167236 4.912909984588623
4.094689846038818 6.880559921264648 5.202459812164307
3.921550035476685 6.873419761657715 3.188869953155518
3.621910095214844 6.114749908447266 0.4523540139198303
4.579040050506592 7.947380065917969 6.909480094909668
4.293930053710938 7.364399909973145 5.622739791870117
5.207399845123291 10.00599956512451 1.6007399559021
4.780290126800537 8.586959838867188 5.418839931488037
4.938590049743652 9.036259651184082 4.763440132141113
5.350460052490234 9.97484016418457 4.016829967498779
4.830739974975586 9.26414966583252 2.731829881668091
4.133830070495605 7.499829769134521 2.700750112533569
4.348249912261963 7.9405198097229 3.567049980163574
3.755759954452515 6.567049980163574 1.386579990386963
4.936840057373047 9.437549591064453 1.455610036849976
4.217559814453125 7.127890110015869 5.761109828948975
4.29286003112793 7.44189977645874 5.212419986724854
3.710629940032959 6.084909915924072 3.593990087509155
4.380370140075684 7.520810127258301 6.104720115661621
5.070650100708008 9.627619743347168 3.261229991912842
4.196839809417725 7.640089988708496 2.901010036468506
5.24891996383667 9.892680168151855 3.399940013885498
5.120669841766357 9.848649978637695 -0.005958570167422295
4.447010040283203 7.651350021362305 6.476709842681885
4.057700157165527 6.832809925079346 4.916810035705566
5.169250011444092 9.886110305786133 2.410739898681641
3.776910066604614 6.512290000915527 2.833770036697388
4.243189811706543 7.581989765167236 3.964989900588989
3.709549903869629 6.371540069580078 2.109689950942993
4.904819965362549 8.88407039642334 5.218890190124512
3.691220045089722 6.275780200958252 2.260479927062988
5.199550151824951 10.15139961242676 0.1625709980726242
4.939760208129883 8.93517017364502 5.350160121917725
3.872090101242065 6.445509910583496 4.242660045623779
3.669749975204468 6.263800144195557 1.076740026473999
5.232240200042725 10.01309967041016 2.047389984130859
3.669100046157837 6.188310146331787 2.094860076904297
5.153460025787354 9.898969650268555 1.710070013999939
5.178520202636719 9.91724967956543 2.174319982528687
3.982419967651367 6.727709770202637 4.42402982711792
3.704869985580444 6.381969928741455 1.486539959907532
5.144790172576904 9.903739929199219 0.9969279766082764
3.750619888305664 6.534969806671143 2.008800029754639
4.427899837493896 8.039310455322266 4.106910228729248
4.318180084228516 7.940460205078125 3.054369926452637
4.277820110321045 7.803770065307617 3.271620035171509
4.3821702003479 7.576119899749756 5.774010181427002
4.592659950256348 8.411179542541504 4.242350101470947
4.027959823608398 7.261280059814453 2.48169994354248
4.310860157012939 7.665380001068115 4.421619892120361
4.672639846801758 8.364819526672363 5.331669807434082
4.454130172729492 7.993710041046143 4.6184401512146
3.936059951782227 6.998350143432617 2.748980045318604
4.587399959564209 8.494480133056641 3.808720111846924
4.315830230712891 7.35653018951416 6.037209987640381
3.667490005493164 6.126520156860352 2.468940019607544
4.558499813079834 7.985060214996338 6.030779838562012
4.818570137023926 8.967140197753906 4.001029968261719
3.749150037765503 6.387969970703125 2.934580087661743
4.047389984130859 7.069759845733643 3.828500032424927
4.210859775543213 7.222449779510498 5.167679786682129
5.147119998931885 9.793769836425781 2.98078989982605
5.198659896850586 9.664609909057617 4.174590110778809
4.237100124359131 7.367949962615967 4.842430114746094
3.563750028610229 5.902430057525635 0.2242950052022934
4.404769897460938 7.682799816131592 5.508279800415039
3.670269966125488 6.285659790039063 0.7295590043067932
4.841469764709473 8.639439582824707 5.977640151977539
4.439340114593506 8.263369560241699 2.962500095367432
4.671740055084229 8.415780067443848 5.05424976348877
5.113049983978271 9.825090408325195 1.155290007591248
5.087709903717041 9.753910064697266 2.509030103683472
3.847490072250366 6.674630165100098 3.117530107498169
4.913790225982666 9.440569877624512 1.9548499584198
3.579139947891235 5.875339984893799 0.9909650087356567
5.23769998550415 10.11310005187988 1.154659986495972
4.561989784240723 8.244170188903809 4.672540187835693
3.922450065612793 6.638239860534668 4.088709831237793
4.659770011901855 8.865779876708984 2.52534008026123
4.168300151824951 7.381939888000488 3.937170028686523
4.072179794311523 6.942940235137939 4.627810001373291
5.142920017242432 9.906780242919922 0.735522985458374
4.956150054931641 9.022350311279297 5.026350021362305
4.04311990737915 6.96845006942749 4.183509826660156
4.283639907836914 7.306779861450195 5.790470123291016
3.867700099945068 6.853740215301514 2.498640060424805
5.014729976654053 9.478079795837402 0.295987993478775
4.928760051727295 9.35908031463623 3.322419881820679
5.064980030059814 9.671489715576172 0.5998250246047974
4.472690105438232 8.225029945373535 3.752180099487305
3.673219919204712 6.226329803466797 1.896090030670166
4.704919815063477 8.796319961547852 3.685420036315918
4.664120197296143 8.588500022888184 4.18278980255127
3.986890077590942 6.789589881896973 4.23714017868042
4.019710063934326 7.221220016479492 2.655210018157959
5.072909832000732 9.674010276794434 0.2877340018749237
4.390160083770752 7.808370113372803 4.719659805297852
3.601459980010986 5.909510135650635 1.514559984207153
4.117680072784424 7.438310146331787 2.86870002746582
4.878320217132568 8.938460350036621 4.648630142211914
4.512110233306885 7.892759799957275 5.879290103912354
4.47107982635498 7.740479946136475 6.235099792480469
4.552519798278809 8.293999671936035 4.34434986114502
4.797110080718994 8.849499702453613 4.301459789276123
3.797430038452148 6.32204008102417 3.839940071105957
4.987130165100098 9.343709945678711 3.846379995346069
4.802929878234863 8.77301025390625 4.697219848632813
4.977260112762451 9.46815013885498 0.9684190154075623
5.075200080871582 9.474360466003418 3.992820024490356
4.812920093536377 8.830630302429199 4.527820110321045
3.747770071029663 6.091410160064697 4.134459972381592
4.424009799957275 7.653520107269287 5.979080200195313
4.151249885559082 6.981629848480225 5.525020122528076
3.574959993362427 5.888420104980469 0.7489830255508423
5.133820056915283 9.86970043182373 1.402570009231567
5.331399917602539 9.990480422973633 3.673700094223022
5.335740089416504 10.02560043334961 3.457020044326782
4.752180099487305 8.863129615783691 3.847970008850098
4.616980075836182 8.202799797058105 5.526740074157715
4.667709827423096 8.789400100708008 3.313649892807007
3.72465991973877 6.419519901275635 2.250730037689209
5.169620037078857 9.546290397644043 4.483610153198242
4.31633996963501 7.535590171813965 5.072189807891846
4.366879940032959 7.956200122833252 3.744460105895996
4.680240154266357 8.284480094909668 5.941510200500488
5.120790004730225 9.374079704284668 4.900809764862061
4.373340129852295 8.030610084533691 3.423219919204712
3.591520071029663 5.891940116882324 1.292960047721863
5.001890182495117 9.256449699401855 4.318729877471924
4.202189922332764 7.144959926605225 5.427720069885254
4.897510051727295 9.351140022277832 3.069250106811523
3.692899942398071 6.217160224914551 2.650650024414063
5.155889987945557 9.666910171508789 3.790859937667847
3.921050071716309 6.691770076751709 3.880019903182983
5.061930179595947 9.311070442199707 4.608399868011475
5.24724006652832 10.00899982452393 2.359380006790161
4.058670043945313 7.26377010345459 3.033730030059814
4.525440216064453 8.512590408325195 2.59050989151001
4.81682014465332 9.05996036529541 3.612970113754272
4.426980018615723 7.810200214385986 5.152740001678467
4.687049865722656 8.334269523620605 5.705520153045654
3.816970109939575 6.449309825897217 3.600670099258423
4.140029907226563 7.435200214385986 3.277950048446655
4.935629844665527 9.474550247192383 2.754509925842285
4.984119892120361 9.523730278015137 3.018769979476929
3.66540002822876 6.214230060577393 1.553590059280396
4.322289943695068 7.609869956970215 4.806519985198975
4.38277006149292 8.144189834594727 2.669310092926025
5.026100158691406 9.627200126647949 1.280110001564026
3.641540050506592 6.206669807434082 0.04294959828257561
4.90556001663208 9.138290405273438 4.026100158691406
