-112.6537170410156 -254.0165863037109 53.31329727172852
-112.7063369750977 -253.6980133056641 53.55178070068359
-114.468879699707 -255.5538482666016 55.39667129516602
-114.134521484375 -254.6947479248047 55.29512786865234
-113.4325485229492 -255.8680877685547 53.51926803588867
-112.7161865234375 -254.0339202880859 53.30732345581055
-112.258674621582 -253.7357635498047 52.66328811645508
-112.7593536376953 -253.6437835693359 53.48172378540039
-112.5023422241211 -254.0144805908203 52.82125473022461
-114.4907913208008 -255.7968292236328 54.99609756469727
-114.1656951904297 -254.9505310058594 54.89342498779297
-112.0368423461914 -254.0604705810547 51.99718856811523
-113.2102432250977 -254.9196929931641 53.36488723754883
-113.7011489868164 -254.7324371337891 54.20610809326172
-114.4424514770508 -255.2369232177734 55.08871078491211
-114.4869766235352 -254.3989715576172 55.56074142456055
-114.7220840454102 -254.2552337646484 55.99776458740234
-113.6866989135742 -256.38427734375 53.23781204223633
-112.3165817260742 -253.9739227294922 52.33901977539063
-112.9354095458984 -254.4856414794922 53.08040618896484
-114.1716537475586 -254.8408050537109 54.78152084350586
-114.5636291503906 -254.4067230224609 55.56418609619141
-113.5002136230469 -255.1887359619141 53.49705123901367
-113.9921875 -255.4297637939453 54.12400436401367
-114.4351348876953 -255.0981597900391 54.95199203491211
-114.4088516235352 -254.6314544677734 55.14231109619141
-114.6308212280273 -254.4380493164063 55.56305694580078
-112.9440155029297 -255.1917266845703 52.56774520874023
-114.5017700195313 -256.0106506347656 54.49990081787109
-113.7932357788086 -254.6597137451172 54.10411071777344
-114.6315536499023 -254.8290252685547 55.27726745605469
-114.6546401977539 -254.4218597412109 55.51261138916016
-114.5745849609375 -254.7097320556641 55.15643310546875
-113.2683410644531 -255.1024017333984 52.92839050292969
-113.7643432617188 -254.9207611083984 53.75380706787109
-114.6510162353516 -254.7145538330078 55.14865112304688
-114.7232360839844 -254.3999481201172 55.49339294433594
-113.2637710571289 -255.4513397216797 52.65423202514648
-114.4851531982422 -256.2374877929688 54.06509017944336
-113.1819000244141 -254.0514678955078 53.16446685791016
-113.4087142944336 -253.9904632568359 53.59099960327148
-113.7124328613281 -253.5633697509766 54.24953460693359
-113.0586318969727 -255.5232696533203 52.2342414855957
-113.2874984741211 -255.4390258789063 52.62196731567383
-114.8776931762695 -254.4227142333984 55.44432067871094
-112.6188507080078 -254.8177947998047 51.85712814331055
-114.9533920288086 -254.4459075927734 55.42629241943359
-113.8367462158203 -254.7534027099609 53.57122039794922
-113.7648086547852 -254.2498931884766 53.71680450439453
-113.7221145629883 -253.7954254150391 53.88034439086914
-112.5948867797852 -254.6536712646484 51.73673248291016
-114.5077362060547 -256.4447937011719 53.59974670410156
-114.3881454467773 -255.8275909423828 53.73429489135742
-113.8157348632813 -254.6592864990234 53.49093627929688
-113.8930892944336 -254.3121948242188 53.73162841796875
-114.0931167602539 -254.1704254150391 54.13250732421875
-115.1025009155273 -254.4763336181641 55.4322624206543
-113.4235229492188 -255.7451171875 52.28890991210938
-114.4078979492188 -256.2520751953125 53.46354675292969
-113.7597351074219 -253.7240447998047 53.7916259765625
-113.5788345336914 -254.6529388427734 52.98717880249023
-113.9609069824219 -254.3074188232422 53.70254898071289
-113.9810180664063 -253.9243011474609 53.92157363891602
-114.9444885253906 -254.19775390625 55.16844940185547
-113.8291854858398 -254.0724334716797 53.54768371582031
-114.1956634521484 -254.1180267333984 54.04372787475586
-115.2609939575195 -254.4701995849609 55.37509918212891
-115.4439315795898 -254.2292633056641 55.75342559814453
-113.5895233154297 -254.5425262451172 52.88323211669922
-113.9219665527344 -254.5314483642578 53.32669830322266
-114.4085998535156 -254.7216644287109 53.94549942016602
-113.8704147338867 -253.6772613525391 53.70899200439453
-115.0010604858398 -254.5507049560547 54.86325073242188
-115.28662109375 -254.4310760498047 55.32399368286133
-114.9734191894531 -255.3358306884766 54.34148406982422
-115.2230606079102 -254.7388763427734 54.98774337768555
-115.1764373779297 -254.2535858154297 55.16421127319336
-113.6823196411133 -255.8300018310547 52.19380569458008
-113.7728042602539 -255.4940948486328 52.49520874023438
-113.8403167724609 -255.1638946533203 52.75511932373047
-114.5720596313477 -255.2268829345703 53.74084091186523
-114.153678894043 -253.8604888916016 53.79611587524414
-114.9896011352539 -254.4165191650391 54.72502517700195
-115.3611526489258 -254.3897552490234 55.25449752807617
-114.017707824707 -254.0368804931641 53.40522766113281
-115.1879501342773 -254.5735015869141 54.82437133789063
-115.3657760620117 -254.3325958251953 55.19005584716797
-114.8138198852539 -255.8130187988281 53.55537414550781
-115.3543853759766 -254.2625885009766 55.11651992797852
-114.7804489135742 -254.4306793212891 54.15659332275391
-114.4070892333984 -256.5636291503906 52.49417877197266
-115.1639785766602 -254.3728179931641 54.61920928955078
-114.4403762817383 -256.5363159179688 52.45755767822266
-113.8046417236328 -253.9766845703125 52.84825897216797
-114.1490249633789 -253.5703735351563 53.49330520629883
-114.7512664794922 -255.9569854736328 53.07619476318359
-113.9619903564453 -254.1276092529297 52.93354034423828
-114.7953872680664 -255.9294128417969 53.08173370361328
-115.1887664794922 -255.9875030517578 53.56488418579102
-115.2043914794922 -255.5806732177734 53.79238891601563
-115.2680282592773 -254.3070220947266 54.51317596435547
-115.4525451660156 -253.9943389892578 54.83624649047852
-113.9864349365234 -254.0443572998047 52.84466934204102
-115.4452056884766 -254.8685455322266 54.36709594726563
-115.3662490844727 -254.3483123779297 54.52322769165039
-114.6634368896484 -256.1058044433594 52.61891174316406
-114.7102661132813 -255.7309417724609 52.89407348632813
-113.6381378173828 -253.9680938720703 52.34000396728516
-115.2728958129883 -255.4935607910156 53.74659729003906
-115.3934783935547 -254.3173065185547 54.48056793212891
-115.519775390625 -253.9949951171875 54.78577041625977
-113.7555541992188 -254.0604400634766 52.37703323364258
-115.2799835205078 -255.4237213134766 53.65640258789063
-114.3251495361328 -253.9264068603516 53.19216918945313
-113.8445434570313 -254.0793609619141 52.35800933837891
-115.3928146362305 -254.6306610107422 54.14087677001953
-115.3938369750977 -254.2024993896484 54.35739135742188
-115.5252532958984 -253.9141387939453 54.67363739013672
-115.4369049072266 -254.21826171875 54.31081390380859
-115.6836090087891 -254.0163116455078 54.73422241210938
-114.6543121337891 -256.3060302734375 52.1477165222168
-113.9127731323242 -254.0569458007813 52.30075073242188
-114.6534576416016 -256.2555847167969 52.13044738769531
-115.291748046875 -256.5495300292969 52.76044464111328
-114.6545257568359 -254.4849395751953 53.00202941894531
-115.3082580566406 -256.5447387695313 52.71114730834961
-115.6447525024414 -254.6684112548828 54.0869026184082
-115.7782135009766 -254.3738555908203 54.40552139282227
-114.6455917358398 -253.9454193115234 53.0878791809082
-115.8097229003906 -254.3439178466797 54.36201858520508
-115.3699493408203 -256.0266723632813 52.87592315673828
-114.8804244995117 -254.5709991455078 52.99399948120117
-114.7175827026367 -253.9750823974609 53.08955383300781
-114.9642791748047 -254.6040191650391 52.99195098876953
-115.2930374145508 -256.7146911621094 52.204833984375
-115.118782043457 -254.1894378662109 53.14739990234375
-115.261474609375 -255.1438140869141 52.75369262695313
-115.2277526855469 -253.8354949951172 53.37528991699219
-115.4068908691406 -255.2536773681641 52.79449462890625
-115.7289657592773 -255.1733551025391 53.2261848449707
-114.8025054931641 -253.7441558837891 52.82344436645508
-114.3469543457031 -260.1663513183594 54.62808227539063
-115.422004699707 -255.1990051269531 52.73248291015625
-115.1970748901367 -254.5245208740234 52.81907653808594
-113.259880065918 -259.5645446777344 53.25358200073242
-115.3623046875 -254.6265411376953 52.84983062744141
-115.5623168945313 -253.9685516357422 53.38639831542969
-113.8857727050781 -260.8776245117188 53.55448150634766
-114.6447448730469 -255.9011993408203 57.27668762207031
-114.9769744873047 -257.4775085449219 57.06444931030273
-115.6032867431641 -254.3729095458984 53.13926696777344
-114.3204193115234 -257.1724853515625 56.13503265380859
-114.8424758911133 -258.1889953613281 56.49627685546875
-113.3333587646484 -256.9171752929688 54.75680160522461
-113.7955093383789 -258.2488708496094 54.84048461914063
-115.4719696044922 -254.6033020019531 52.75352478027344
-114.1439208984375 -259.5247192382813 54.73611450195313
-111.130973815918 -256.2702026367188 51.66853332519531
-111.0421676635742 -256.4531860351563 51.43748474121094
-116.0636520385742 -255.1854095458984 53.10281372070313
-111.6760482788086 -257.7466735839844 51.79494094848633
-113.7002563476563 -255.4917755126953 56.1594123840332
-112.2842864990234 -254.8087005615234 54.31402969360352
-114.2424468994141 -257.200927734375 56.17366027832031
-111.2061767578125 -254.5941619873047 52.73353576660156
-111.646484375 -255.4052276611328 53.02421188354492
-111.8613586425781 -256.3164367675781 52.89958953857422
-112.8694686889648 -258.3452758789063 53.44965744018555
-114.3874206542969 -258.4667358398438 45.55191421508789
-110.7239379882813 -256.101806640625 51.22959136962891
-111.6261749267578 -257.7432556152344 51.80978393554688
-114.5647125244141 -255.9297485351563 57.34255981445313
-114.0343933105469 -255.8612823486328 56.60153961181641
-114.9661483764648 -257.1564025878906 57.41069412231445
-114.6887588500977 -257.5654907226563 46.11408996582031
-114.522819519043 -257.1414184570313 56.74237060546875
-112.1679382324219 -255.0342254638672 54.04446411132813
-115.6862182617188 -255.0088806152344 52.4326286315918
-112.8462219238281 -256.4956359863281 54.43364334106445
-115.6457214355469 -254.5744781494141 52.67895126342773
-115.5207977294922 -254.0226898193359 52.81564712524414
-111.2261810302734 -255.2622833251953 52.50993347167969
-111.7676467895508 -256.2496948242188 52.86244201660156
-113.7232055664063 -259.5488586425781 54.27011871337891
-110.8567504882813 -256.0020751953125 51.54257583618164
-111.408332824707 -257.8391723632813 51.49325180053711
-113.5285415649414 -255.4346771240234 56.1144905090332
-113.2136688232422 -255.4924774169922 55.58840179443359
-116.5916442871094 -254.6131134033203 53.66513442993164
-113.8461761474609 -256.5075988769531 56.09397888183594
-113.9508285522461 -257.0063781738281 56.00796890258789
-112.1676864624023 -256.1185302734375 53.63114166259766
-111.095703125 -255.1122283935547 52.43263244628906
-113.8727569580078 -258.9537353515625 54.90230560302734
-114.3731384277344 -258.3985595703125 45.40643310546875
-113.8278961181641 -259.322509765625 54.64513778686523
-110.818733215332 -256.0178527832031 51.55488586425781
-110.9697799682617 -256.5525207519531 51.52358245849609
-114.3349990844727 -258.3651428222656 45.41774368286133
-110.8547134399414 -256.7147216796875 51.25944137573242
-112.3712768554688 -255.0501556396484 54.58464813232422
-112.2846832275391 -255.6240997314453 54.15787887573242
-111.0059509277344 -254.7907257080078 52.54417037963867
-114.2458724975586 -259.053955078125 55.55466842651367
-112.6990356445313 -257.5535278320313 53.85990142822266
-114.3298416137695 -258.3157043457031 45.40029525756836
-113.9462890625 -259.5479125976563 54.82259750366211
-113.3317108154297 -259.1574401855469 54.0416374206543
-113.580810546875 -260.3730773925781 53.82418823242188
-111.5420684814453 -257.7931823730469 51.88175582885742
-115.9854278564453 -256.0562438964844 51.96320724487305
-111.3277587890625 -257.8035278320313 51.4962158203125
-113.012580871582 -255.3945770263672 55.50189208984375
-113.0880126953125 -257.3178405761719 54.67751312255859
-114.220817565918 -259.0974426269531 55.59397125244141
-111.7333068847656 -256.7057495117188 52.81753158569336
-111.1864013671875 -256.3087463378906 52.14207077026367
-110.6917953491211 -255.9440765380859 51.53395843505859
-112.7623062133789 -259.2615051269531 53.17586517333984
-116.0827331542969 -256.068359375 51.95571899414063
-113.3830795288086 -255.4502410888672 56.16396713256836
-113.3452072143555 -255.7788543701172 55.93787002563477
-112.0174102783203 -255.1040191650391 54.16396713256836
-113.9407348632813 -257.9864196777344 55.81040191650391
-116.7368392944336 -254.9825592041016 53.29689025878906
-111.7484664916992 -256.1043701171875 53.22763061523438
-112.6344528198242 -257.5753173828125 53.91382217407227
-111.3287048339844 -256.2267761230469 52.48984527587891
-113.5381927490234 -259.5933837890625 54.36063766479492
-111.1714859008789 -256.6116943359375 51.95973205566406
-111.1949462890625 -257.7385559082031 51.49789810180664
-114.6156311035156 -257.8190612792969 42.66505432128906
-114.0799789428711 -255.7855072021484 57.22148513793945
-114.629997253418 -256.7081909179688 57.64743041992188
-113.3182067871094 -255.8061370849609 55.97939300537109
-112.9477233886719 -255.7959442138672 55.39741134643555
-112.0173263549805 -255.1143035888672 54.20404815673828
-115.8440246582031 -254.008056640625 52.6640625
-114.693977355957 -257.8624572753906 45.51833724975586
-111.0365295410156 -254.3732147216797 53.009521484375
-111.5413436889648 -255.2536773681641 53.39361190795898
-113.0866394042969 -257.4198608398438 54.79978942871094
-113.6969985961914 -259.01318359375 54.99155807495117
-112.7884674072266 -258.2228393554688 53.88765335083008
-110.60693359375 -256.2124328613281 51.37910461425781
-113.1388854980469 -255.6733245849609 55.84220504760742
-111.9793167114258 -255.1567230224609 54.23719024658203
-110.9550170898438 -254.6012420654297 52.84273147583008
-116.1521987915039 -256.0588989257813 51.88790130615234
-113.3579406738281 -258.2217407226563 54.94277954101563
-112.7510528564453 -258.2318725585938 53.94879150390625
-110.5703811645508 -255.6154327392578 51.71114730834961
-114.3245468139648 -258.1524658203125 45.15517044067383
-112.2744979858398 -258.7456970214844 52.91319274902344
-112.453857421875 -259.4033508300781 52.8717041015625
-112.4798049926758 -259.8369140625 52.66013717651367
-113.4324417114258 -255.6523284912109 56.43127822875977
-112.2801284790039 -255.5367279052734 54.62603378295898
-116.2368850708008 -256.0614318847656 51.89965057373047
-112.7530059814453 -256.4146118164063 54.96043395996094
-110.8997802734375 -254.6148071289063 52.83981323242188
-111.6777954101563 -255.8202972412109 53.46593856811523
-112.8668594360352 -257.7183532714844 54.53887557983398
-110.7325592041016 -255.8919219970703 51.91069030761719
-111.1827239990234 -257.1968994140625 51.99253082275391
-112.3997039794922 -259.4084777832031 52.87604522705078
-112.4236373901367 -259.8663940429688 52.68466186523438
-114.2656707763672 -256.5257873535156 57.46721649169922
-112.8712692260742 -255.8726654052734 55.51136016845703
-111.4482192993164 -255.2896575927734 53.45893859863281
-113.1866607666016 -259.7600708007813 54.0350341796875
-111.1393432617188 -257.1849060058594 51.99763488769531
-114.4071273803711 -258.4388732910156 44.90913009643555
-112.3817291259766 -259.4166259765625 52.89426422119141
-114.5099945068359 -256.8198852539063 57.82291030883789
-111.9846267700195 -254.9335174560547 54.53647994995117
-111.8911743164063 -255.2089691162109 54.32158279418945
-112.2228546142578 -255.9180755615234 54.51640701293945
-114.3763198852539 -258.38720703125 44.92206954956055
-114.3443145751953 -258.1011047363281 45.04667663574219
-112.8834381103516 -257.0500183105469 55.04490661621094
-113.3615417480469 -258.0175170898438 55.35300064086914
-113.6989517211914 -258.8526611328125 55.49399948120117
-113.9811325073242 -259.6513061523438 55.56157684326172
-113.1411361694336 -259.8052978515625 54.08994293212891
-112.3152084350586 -259.4193115234375 52.90535736083984
-112.3825607299805 -259.9444885253906 52.76003265380859
-110.9277877807617 -257.9882202148438 51.32711029052734
-114.4058380126953 -256.7818908691406 57.79059600830078
-113.1125640869141 -255.8624725341797 56.09596252441406
-114.3281021118164 -258.3006896972656 44.84727096557617
-112.2944869995117 -255.3708343505859 55.00692367553711
-112.0196762084961 -255.7417755126953 54.36244583129883
-113.5411224365234 -257.9013977050781 55.82151031494141
-111.7709045410156 -256.4592895507813 53.58761978149414
-114.01123046875 -259.817626953125 55.68222808837891
-113.2441635131836 -259.1730346679688 54.68819808959961
-110.3717346191406 -255.8526763916016 51.57722473144531
-110.7803192138672 -257.1096496582031 51.60592651367188
-112.1480255126953 -259.6693725585938 52.61203765869141
-114.3499145507813 -256.79150390625 57.81414031982422
-112.5707778930664 -256.4610900878906 55.07000732421875
-113.0087280273438 -257.3263549804688 55.3289794921875
-114.6033935546875 -257.8714904785156 45.0634651184082
-111.9833908081055 -256.7901916503906 53.85649108886719
-113.20166015625 -259.2101440429688 54.75265884399414
-110.533576965332 -255.8177337646484 51.9080696105957
-110.39013671875 -255.9199676513672 51.61572647094727
-114.3184814453125 -258.2371826171875 44.76696395874023
-110.7324752807617 -257.0875549316406 51.60525512695313
-110.5199966430664 -257.4353332519531 51.07324981689453
-113.7989730834961 -256.2924194335938 57.23641586303711
-112.5978851318359 -255.7969512939453 55.47637176513672
-113.6376190185547 -258.1393432617188 56.06135940551758
-111.8051605224609 -256.2639770507813 53.90409088134766
-113.807975769043 -259.6374206542969 55.59965515136719
-112.4608612060547 -258.2230224609375 54.03144454956055
-110.4662551879883 -255.7719268798828 51.88811874389648
-110.4149169921875 -256.007080078125 51.68350601196289
-112.1784591674805 -259.0036315917969 53.16287994384766
-114.603515625 -258.4411010742188 42.69308471679688
-111.608154296875 -258.546630859375 52.43701553344727
-113.1037368774414 -261.3425903320313 53.5651969909668
-110.8829498291016 -258.0990600585938 51.42551803588867
-114.1215591430664 -256.6743469238281 57.69705581665039
-113.2359619140625 -256.1549682617188 56.4539909362793
-111.3542098999023 -259.6675109863281 51.41307067871094
-111.8923263549805 -255.4123687744141 54.56730651855469
-111.4930572509766 -255.6009979248047 53.79456329345703
-113.7963409423828 -259.6973876953125 55.66220092773438
-114.4236221313477 -258.5093688964844 44.45560836791992
-112.3950653076172 -258.2162475585938 54.06222915649414
-111.2009811401367 -256.8793640136719 52.65865325927734
-110.3910217285156 -256.026123046875 51.70808792114258
-114.3866348266602 -258.4623413085938 44.44667816162109
-112.266357421875 -260.0495910644531 52.88295364379883
-110.576545715332 -257.6756286621094 51.24042510986328
-114.2223663330078 -256.8387145996094 57.90228652954102
-114.4170608520508 -258.4470520019531 44.38033294677734
-113.3613357543945 -256.3457946777344 56.67827987670898
-113.5252685546875 -256.9312438964844 56.69921493530273
-113.9368743896484 -257.7989196777344 56.97048568725586
-111.8521575927734 -256.0971374511719 54.25321578979492
-111.7610549926758 -256.326416015625 53.98284912109375
-114.5430908203125 -257.9484252929688 44.67715454101563
-111.8755569458008 -256.8226013183594 53.93097305297852
-113.4719696044922 -259.7754821777344 55.1878547668457
-112.1290588378906 -259.0745849609375 53.23886871337891
-112.725341796875 -260.4672546386719 53.57804107666016
-114.3613739013672 -258.1114501953125 44.52449798583984
-114.1862869262695 -256.8473205566406 57.96863555908203
-113.0348510742188 -256.070556640625 56.38822555541992
-113.9335861206055 -257.4414672851563 57.25108337402344
-111.870002746582 -255.4940032958984 54.67092132568359
-112.7101287841797 -256.8284301757813 55.45133972167969
-111.8271484375 -256.1199340820313 54.28506088256836
-114.3810882568359 -258.395751953125 44.36439895629883
-114.3788986206055 -258.0701599121094 44.51171493530273
-114.5658187866211 -257.9530334472656 44.60696792602539
-112.9901885986328 -257.9446411132813 55.37662506103516
-112.5740432739258 -258.15673828125 54.50703430175781
-114.6316223144531 -257.9488830566406 44.60575103759766
-113.4691925048828 -259.8438415527344 55.25319290161133
-110.3965835571289 -256.1446838378906 51.80945205688477
-112.1063232421875 -259.1036376953125 53.26751327514648
-113.0259323120117 -260.9854125976563 53.91875839233398
-110.4397964477539 -257.5447082519531 51.18323516845703
-113.8763122558594 -256.6093139648438 57.65386962890625
-110.3801116943359 -257.7971496582031 50.95381164550781
-113.0846176147461 -256.1698913574219 56.5040168762207
-114.3634872436523 -258.3046264648438 44.28554534912109
-112.0068054199219 -256.0475158691406 54.73845672607422
-111.7566528320313 -256.0527954101563 54.28497314453125
-112.921989440918 -257.9209289550781 55.36974334716797
-111.9791488647461 -257.0170593261719 54.12250137329102
-111.0899658203125 -256.5561218261719 52.87754440307617
-111.4346542358398 -257.3672485351563 53.01186370849609
-114.3659591674805 -258.3093566894531 44.20593643188477
-112.4909896850586 -259.3512573242188 53.90935516357422
-112.0828628540039 -259.138916015625 53.30803680419922
-113.0083541870117 -261.0352172851563 53.96449279785156
-110.4385452270508 -257.6020202636719 51.22553634643555
-114.047966003418 -256.8453674316406 57.94356536865234
-112.9826354980469 -256.1158752441406 56.45383453369141
-111.997314453125 -255.4094696044922 55.12041473388672
-114.4218673706055 -258.0141296386719 44.35639190673828
-112.5687866210938 -256.381591796875 55.57882690429688
-111.9504776000977 -256.0399169921875 54.72499847412109
-111.7507247924805 -256.1399536132813 54.32701110839844
-113.760612487793 -259.5111694335938 56.15164566040039
-112.6740570068359 -258.8483276367188 54.5964241027832
-114.3605575561523 -258.2440185546875 44.11568832397461
-114.4588928222656 -257.9953918457031 44.27918243408203
-110.3580627441406 -256.1988830566406 51.86913681030273
-114.4242553710938 -258.284912109375 43.07609939575195
-112.0581283569336 -259.1776733398438 53.34847259521484
-111.3349380493164 -258.8050231933594 52.28075790405273
-110.3909149169922 -257.5877685546875 51.23252105712891
-113.7536544799805 -256.6064453125 57.6724853515625
-113.1946487426758 -256.40771484375 56.79255676269531
-111.8890075683594 -255.3389129638672 55.0553092956543
-112.9520111083984 -257.303955078125 55.94187545776367
-111.6957626342773 -256.1256408691406 54.32523345947266
-113.6999053955078 -259.5022583007813 56.15946197509766
-114.4514312744141 -258.32275390625 43.07805252075195
-114.3664855957031 -258.2267456054688 44.03885650634766
-111.1233749389648 -256.3698425292969 53.16476058959961
-112.6614227294922 -258.9199829101563 54.62775039672852
-113.2663497924805 -260.6985168457031 54.82289505004883
-112.0243072509766 -259.2069091796875 53.39987182617188
-112.9718246459961 -261.1438903808594 54.06341171264648
-114.3658294677734 -258.1345520019531 44.04871368408203
-110.1056060791016 -256.8210144042969 51.18839263916016
-110.3700942993164 -257.9706726074219 51.07853698730469
-113.1161956787109 -256.3797302246094 56.77162933349609
-114.3642272949219 -258.1316223144531 43.97454071044922
-111.1222457885742 -259.6728210449219 51.48979187011719
-112.5654144287109 -257.626708984375 55.15196228027344
-111.2593078613281 -257.3267211914063 53.04510116577148
-112.0031356811523 -259.22998046875 53.41011428833008
-110.3206100463867 -257.5762023925781 51.24486923217773
-111.0602493286133 -259.6913452148438 51.5111198425293
-112.4331436157227 -256.0636596679688 55.84651565551758
-112.3411483764648 -256.319580078125 55.55622863769531
-111.7667388916016 -256.0031127929688 54.69297027587891
-113.8367156982422 -258.9472045898438 56.90642166137695
-113.0176620483398 -259.1494750976563 55.35153961181641
-110.7096786499023 -256.5707092285156 52.5344123840332
-111.926383972168 -258.7797241210938 53.59677505493164
-111.2019958496094 -258.0051574707031 52.68727493286133
-111.1162338256836 -258.6148376464844 52.19467163085938
-111.5874938964844 -259.9152221679688 52.47051239013672
-110.5441284179688 -258.4047241210938 51.33307647705078
-114.4588623046875 -258.3924255371094 43.64932632446289
-113.9528961181641 -257.4199523925781 57.96224594116211
-111.0298233032227 -259.7158203125 51.54895782470703
-112.371337890625 -256.4156494140625 55.66472244262695
-111.7775955200195 -256.0542602539063 54.78326416015625
-111.9455184936523 -256.6158447265625 54.80464553833008
-114.4700622558594 -258.3619079589844 43.17183685302734
-114.4306335449219 -258.3607482910156 43.65483474731445
-111.4379272460938 -257.3270263671875 53.4979133605957
-111.1498260498047 -258.0158081054688 52.68658828735352
-110.7988891601563 -257.8365783691406 52.17489624023438
-110.7942657470703 -258.1714172363281 51.97292709350586
-110.2126846313477 -257.4999389648438 51.26076507568359
-110.5396499633789 -258.4619750976563 51.35460662841797
-114.4058303833008 -258.3038330078125 43.64089584350586
-112.5130004882813 -255.8928985595703 56.25621795654297
-112.5183258056641 -256.2732849121094 56.09061431884766
-111.8865737915039 -255.9095458984375 55.17258453369141
-113.0791778564453 -257.7142028808594 56.38417816162109
-113.5488815307617 -258.7212829589844 56.72892379760742
-111.6928100585938 -257.0552062988281 54.21969985961914
-111.4186096191406 -257.7388610839844 53.38853454589844
-111.8882598876953 -258.8575744628906 53.6760368347168
-111.9098205566406 -259.7529602050781 53.31924819946289
-112.2469482421875 -260.7162475585938 53.39688873291016
-110.1569137573242 -257.4966430664063 51.26602172851563
-112.498161315918 -256.3107604980469 56.14164352416992
-114.4071350097656 -258.301513671875 43.56951522827148
-111.9624252319336 -256.3948364257813 55.13135147094727
-112.1772232055664 -257.01416015625 55.24079895019531
-112.4076232910156 -258.1031494140625 55.09016036987305
-114.3797073364258 -258.2207641601563 43.57118225097656
-114.4663162231445 -257.9875183105469 43.71479415893555
-110.8673095703125 -256.3102416992188 53.19248962402344
-110.3314361572266 -256.1630859375 52.30336761474609
-110.1376953125 -256.1896057128906 51.93195724487305
-111.8939514160156 -259.3475036621094 53.54301834106445
-110.7253570556641 -257.8098754882813 52.17110443115234
-112.1753158569336 -260.7118530273438 53.42272567749023
-110.0224761962891 -257.2462158203125 51.17393493652344
-114.3892288208008 -258.2261962890625 43.49182510375977
-114.542854309082 -258.419189453125 43.25362396240234
-112.4619903564453 -255.9861450195313 56.34944152832031
-112.4746475219727 -256.3446350097656 56.18890380859375
-113.279182434082 -257.6893920898438 56.98792266845703
-111.60302734375 -256.0547180175781 54.76564407348633
-111.1126861572266 -256.3782348632813 53.70529937744141
-110.9287872314453 -256.4578857421875 53.31908416748047
-110.4925765991211 -256.1514282226563 52.67654037475586
-110.3255233764648 -256.2023315429688 52.30269241333008
-110.587532043457 -257.6526794433594 52.10471725463867
-109.9411773681641 -256.9477233886719 51.31714630126953
-110.0357437133789 -257.4007568359375 51.22385406494141
-114.3825454711914 -258.1508178710938 43.48786544799805
-113.6817855834961 -257.3815612792969 57.96512603759766
-112.4282302856445 -256.3483581542969 56.2032470703125
-112.9746551513672 -257.3851318359375 56.69141006469727
-111.9876251220703 -256.9100036621094 55.11892318725586
-111.1763916015625 -256.187255859375 53.99062728881836
-114.3819885253906 -258.146728515625 43.41336822509766
-114.5307998657227 -257.9544982910156 43.57387542724609
-110.3179473876953 -256.0008544921875 52.53204345703125
-112.3541870117188 -259.3896484375 54.56314849853516
-110.7230758666992 -257.9156494140625 52.30015182495117
-110.8964157104492 -258.5982360839844 52.27243041992188
-109.9296417236328 -257.2753295898438 51.14466094970703
-113.6104278564453 -257.365234375 57.95772933959961
-112.2507476806641 -262.405517578125 52.87648773193359
-112.4660339355469 -256.4465942382813 56.30865478515625
-111.8026428222656 -256.0250854492188 55.32393264770508
-111.8370513916016 -256.388916015625 55.15410614013672
-112.4608612060547 -257.9917297363281 55.56622314453125
-110.9536590576172 -256.2795715332031 53.63274765014648
-112.6550140380859 -260.3794250488281 54.74337387084961
-114.3840026855469 -258.1299438476563 43.33467864990234
-110.9549179077148 -257.9823608398438 52.75014495849609
-110.6870727539063 -257.9562072753906 52.31083297729492
-109.7950286865234 -256.765380859375 51.25386047363281
-109.7600708007813 -257.1018981933594 51.10581588745117
-111.2288436889648 -260.1081848144531 52.24400329589844
-114.3955459594727 -258.0614013671875 43.32266998291016
-114.5964965820313 -257.9280700683594 43.45653533935547
-112.5231170654297 -256.1972961425781 56.65019989013672
-113.2371444702148 -257.4320678710938 57.38610458374023
-112.8922958374023 -257.8234558105469 56.55343627929688
-112.308219909668 -257.4622497558594 55.64810180664063
-112.7647018432617 -258.8888244628906 55.79082107543945
-110.5331649780273 -256.38720703125 52.88500213623047
-112.2902603149414 -259.4218444824219 54.61164474487305
-114.3960418701172 -258.0619812011719 43.24981689453125
-110.9582138061523 -257.7299194335938 52.99676513671875
-112.4737243652344 -260.6259765625 54.39566040039063
-112.4682464599609 -262.0104064941406 53.69570159912109
-112.339714050293 -262.2647399902344 53.3305549621582
-110.7931442260742 -259.7584533691406 51.6584358215332
-112.4039535522461 -256.503662109375 56.40182495117188
-112.2146224975586 -256.6303405761719 55.96794891357422
-111.8073120117188 -256.5009765625 55.28968048095703
-112.9318923950195 -258.3533020019531 56.47561645507813
-112.7085723876953 -258.4310302734375 55.96639251708984
-113.2223281860352 -260.0567321777344 56.17748260498047
-114.4857330322266 -258.3645629882813 43.00968170166016
-110.5720520019531 -256.5034790039063 52.98213195800781
-111.7803649902344 -258.7257080078125 54.14155197143555
-110.0945053100586 -256.7368469238281 51.97458648681641
-111.3529968261719 -259.6033630371094 52.86221694946289
-112.4001312255859 -261.9646606445313 53.70768737792969
-114.4468231201172 -258.3145141601563 42.99635314941406
-114.4007034301758 -258.0464782714844 43.16910934448242
-111.1180725097656 -260.0541381835938 52.24607849121094
-112.4700775146484 -256.2238159179688 56.69487762451172
-110.7432479858398 -259.7598571777344 51.6906623840332
-111.8981246948242 -256.3221435546875 55.65797424316406
-114.4160842895508 -258.2867126464844 43.00285720825195
-114.4192276000977 -258.0136413574219 43.14858627319336
-111.918098449707 -256.7106628417969 55.50422668457031
-112.9338150024414 -258.4345397949219 56.56437301635742
-111.4757232666016 -257.2041931152344 54.42953491210938
-111.9288711547852 -259.038818359375 54.37679290771484
-109.7765350341797 -256.8651733398438 51.36399078369141
-114.3994979858398 -258.2192077636719 42.92610168457031
-114.4248886108398 -258.006591796875 43.09936141967773
-109.6706848144531 -257.0592346191406 51.10490036010742
-113.5772933959961 -257.6065673828125 58.2771110534668
-112.9779815673828 -257.3250122070313 57.30598068237305
-112.6713333129883 -257.748046875 56.51810455322266
-114.4645843505859 -257.9794616699219 43.08432388305664
-111.677001953125 -256.8316650390625 55.10516738891602
-112.0375900268555 -257.684814453125 55.3505859375
-110.8363189697266 -256.3499145507813 53.7354621887207
-110.4488296508789 -256.1136779785156 53.11869049072266
-112.1543884277344 -259.5274963378906 54.75279998779297
-110.2844467163086 -256.8439025878906 52.44756317138672
-110.0610580444336 -256.8862609863281 52.07358932495117
-114.4071578979492 -258.2297973632813 42.84420394897461
-114.4689407348633 -257.9667663574219 43.00435256958008
-110.554443359375 -257.9842224121094 52.38458251953125
-109.7613906860352 -256.9402160644531 51.37455368041992
-111.2804489135742 -260.0941467285156 52.72883605957031
-110.714599609375 -259.7971496582031 51.72415542602539
-112.7613754272461 -257.1272888183594 57.1043586730957
-111.4446792602539 -256.5669860839844 54.87436676025391
-110.8160247802734 -256.3789978027344 53.77027893066406
-111.7158584594727 -258.44921875 54.46444320678711
-112.157470703125 -259.5489807128906 54.76381301879883
-114.3918228149414 -258.1489868164063 42.84527969360352
-114.4923706054688 -257.9383239746094 42.92279815673828
-110.9926605224609 -258.444580078125 53.08922958374023
-110.0593566894531 -257.2019348144531 51.92373657226563
-111.484245300293 -260.1150512695313 53.20189666748047
-114.3907470703125 -258.1507263183594 42.77009582519531
-109.6022644042969 -257.0547180175781 51.12501907348633
-111.3509521484375 -260.7250061035156 52.62267684936523
-110.6361846923828 -259.7870788574219 51.74663543701172
-113.0488128662109 -257.5513610839844 57.57280349731445
-112.6719512939453 -257.489013671875 56.88137054443359
-114.3547286987305 -258.1130981445313 42.76354217529297
-114.5565414428711 -257.9049987792969 42.92779541015625
-111.7799301147461 -256.7218322753906 55.54873657226563
-111.6559295654297 -256.9219665527344 55.21285629272461
-111.0947265625 -256.8501586914063 54.17251968383789
-114.5488586425781 -257.8895568847656 42.84336853027344
-110.4829483032227 -256.3065185546875 53.27392578125
-111.6754989624023 -258.4660949707031 54.49145889282227
-114.4312362670898 -258.3609313964844 43.73266220092773
-110.1021881103516 -256.6724548339844 52.35667419433594
-112.2929382324219 -260.739013671875 54.55687713623047
-114.3501129150391 -258.0864562988281 42.7259407043457
-110.6881637573242 -258.7591247558594 52.45870971679688
-110.9504470825195 -259.6449584960938 52.51948165893555
-109.7379379272461 -257.7273559570313 51.13736343383789
-110.5776290893555 -259.75732421875 51.74793243408203
-112.6889114379883 -257.5772705078125 56.98281097412109
-111.7625274658203 -256.778564453125 55.56198120117188
-114.3434448242188 -258.051025390625 42.68415069580078
-110.4704666137695 -256.3261108398438 53.31853485107422
-111.8005218505859 -258.7139892578125 54.69009780883789
-110.0732879638672 -256.6431884765625 52.35624313354492
-111.6687622070313 -259.7528686523438 53.94631195068359
-114.5382308959961 -257.8768005371094 42.77294921875
-109.9976501464844 -257.1990966796875 51.95745849609375
-112.78076171875 -257.3219604492188 57.34208297729492
-111.8310241699219 -256.5783081054688 55.98392105102539
-111.3025283813477 -256.8787231445313 54.67827987670898
-112.6347351074219 -260.5637512207031 55.52623748779297
-114.5597381591797 -257.8512573242188 42.7475700378418
-111.3706359863281 -258.9127197265625 53.88226318359375
-110.8831939697266 -258.4692993164063 53.14264678955078
-114.4621429443359 -258.4045104980469 43.80357360839844
-109.952018737793 -257.2091979980469 51.96371459960938
-110.2284393310547 -258.3987731933594 51.87325286865234
-110.2813186645508 -258.9193115234375 51.76184463500977
-112.7532424926758 -257.3875427246094 57.42893218994141
-111.7524795532227 -256.8726501464844 55.72713851928711
-112.0674209594727 -257.6474304199219 55.90921783447266
-111.4286651611328 -257.9080505371094 54.58755111694336
-112.1712265014648 -259.4219665527344 55.23286056518555
-112.5399475097656 -260.4931640625 55.49092483520508
-109.9600601196289 -256.6387939453125 52.34049987792969
-110.5705108642578 -258.3862609863281 52.70862197875977
-111.3588943481445 -260.2046203613281 53.32279586791992
-110.1780166625977 -258.4083862304688 51.89691162109375
-114.557373046875 -257.8263549804688 42.68479156494141
-110.2416839599609 -259.2646484375 51.57234954833984
-112.7351150512695 -257.4320373535156 57.48771667480469
-111.9898986816406 -256.8745727539063 56.29623794555664
-112.0070571899414 -257.2783813476563 56.13251113891602
-111.9532928466797 -257.5906372070313 55.8741455078125
-111.8165588378906 -258.1751098632813 55.31938171386719
-110.3599624633789 -256.6672973632813 53.19442749023438
-110.5074157714844 -258.3363342285156 52.66580581665039
-111.1924057006836 -260.7903747558594 52.76287841796875
-110.1745834350586 -259.2566833496094 51.58613204956055
-111.6739654541016 -256.5382385253906 55.94402313232422
-111.7663421630859 -257.0232543945313 55.89571762084961
-110.9649810791016 -257.0183715820313 54.34816741943359
-111.8555755615234 -258.7109069824219 55.24728775024414
-112.0712203979492 -259.4649353027344 55.30511856079102
-109.9047241210938 -256.6059265136719 52.37998199462891
-110.4504623413086 -257.9117431640625 52.85086441040039
-109.9908447265625 -257.8179016113281 51.9848518371582
-110.7440185546875 -259.6450500488281 52.58804321289063
-112.8844909667969 -258.1877136230469 57.66667938232422
-112.0099563598633 -257.4241027832031 56.29779815673828
-110.6068496704102 -256.5052795410156 53.95183944702148
-111.2788391113281 -258.2818908691406 54.45191192626953
-110.0952453613281 -259.2501525878906 51.58727264404297
-112.0517120361328 -257.1647033691406 56.61521530151367
-112.7021636962891 -258.4493103027344 57.31063842773438
-111.3564758300781 -257.33642578125 55.15398788452148
-110.6033782958984 -256.5695190429688 54.01717758178711
-110.2932662963867 -256.3934631347656 53.43114471435547
-111.7326431274414 -259.090576171875 55.05266189575195
-111.8037261962891 -259.6261291503906 54.93369293212891
-109.9123611450195 -257.0930786132813 52.36961364746094
-109.8158187866211 -257.2592163085938 52.05142974853516
-111.5110092163086 -262.2725524902344 53.04998016357422
-112.8056030273438 -257.811279296875 57.94311141967773
-112.0434951782227 -257.2191467285156 56.69386291503906
-112.6673126220703 -258.4710083007813 57.343017578125
-111.1205215454102 -256.6922912597656 55.08816909790039
-110.7256774902344 -256.8144836425781 54.23179626464844
-111.2601165771484 -258.3943481445313 54.54020309448242
-109.8510284423828 -256.7624816894531 52.52631759643555
-109.9987182617188 -257.3491516113281 52.50284957885742
-109.7471008300781 -257.236328125 52.05719757080078
-109.7495880126953 -257.8905639648438 51.73635101318359
-111.0459442138672 -260.8764953613281 52.84906387329102
-112.0431900024414 -257.29052734375 56.77848434448242
-111.1690063476563 -256.8193054199219 55.22982025146484
-110.8346099853516 -257.0498657226563 54.44015502929688
-110.0420150756836 -256.4783935546875 53.10752868652344
-109.8812789916992 -256.5390930175781 52.75115203857422
-109.8648376464844 -256.8403930664063 52.61196899414063
-110.2379837036133 -257.8788146972656 52.84595108032227
-111.4694442749023 -260.503173828125 54.04697418212891
-109.8824691772461 -257.9145812988281 52.08213043212891
-110.0112686157227 -258.9555358886719 51.85984420776367
-111.4551544189453 -262.2958679199219 53.08376312255859
-112.0359497070313 -257.357666015625 56.85943984985352
-111.2972869873047 -257.4605712890625 55.29795455932617
-110.7999496459961 -257.0706176757813 54.46960830688477
-110.2609558105469 -256.9093322753906 53.44462203979492
-109.8570022583008 -256.5680541992188 52.78347778320313
-109.7412719726563 -257.6901245117188 51.98361206054688
-110.447395324707 -259.4849853515625 52.5707893371582
-109.9188461303711 -259.183349609375 51.62704467773438
-112.0218276977539 -258.20458984375 56.52736282348633
-110.8309097290039 -256.8240356445313 54.74570465087891
-110.7049331665039 -256.9851989746094 54.40797805786133
-110.6376876831055 -257.2343444824219 54.14843368530273
-110.3216857910156 -257.0288696289063 53.55909729003906
-110.3078155517578 -257.3984680175781 53.38905334472656
-110.9629287719727 -258.8646240234375 53.97110366821289
-110.9248886108398 -259.2474365234375 53.76077270507813
-109.6761779785156 -257.6654052734375 51.98761367797852
-110.4008178710938 -259.4670104980469 52.57295989990234
-110.7120361328125 -260.5221252441406 52.70017242431641
-110.8424682617188 -256.9111022949219 54.83369445800781
-114.3634033203125 -258.1283874511719 44.36590576171875
-110.8469390869141 -257.6443481445313 54.48712158203125
-110.1537094116211 -257.2057495117188 53.2622184753418
-110.9369735717773 -258.94970703125 54.03968811035156
-110.6467514038086 -260.4789733886719 52.6923713684082
-110.6709136962891 -257.0734252929688 54.5045051574707
-110.1647644042969 -256.628662109375 53.70162200927734
-110.2440032958984 -257.04736328125 53.57592010498047
-111.4858474731445 -259.5869140625 54.98727416992188
-110.9368362426758 -259.0325927734375 54.10938262939453
-110.8619918823242 -259.6438903808594 53.58955764770508
-109.8650360107422 -258.1803283691406 52.28329467773438
-110.3085021972656 -259.4911804199219 52.61023712158203
-109.8302612304688 -259.268310546875 51.72674942016602
-112.0282211303711 -258.4439086914063 56.78581619262695
-110.7297668457031 -256.871826171875 54.81953430175781
-114.5483016967773 -257.9510192871094 44.55915451049805
-110.4532775878906 -256.7920532226563 54.27736663818359
-110.1933898925781 -257.0603942871094 53.60133361816406
-110.3850784301758 -257.7450561523438 53.67224884033203
-111.1447143554688 -259.9044189453125 54.21220397949219
-110.8935775756836 -259.8522338867188 53.71877670288086
-109.7533340454102 -258.4613342285156 52.04664611816406
-110.5583877563477 -260.458984375 52.69154357910156
-109.8323059082031 -259.3159484863281 51.72975158691406
-111.726676940918 -257.6773071289063 56.64661407470703
-110.7297439575195 -256.9428100585938 54.89332962036133
-110.4042510986328 -256.7842102050781 54.28153610229492
-110.1630706787109 -257.0752258300781 53.64519119262695
-110.2836532592773 -257.6432495117188 53.610595703125
-110.2092971801758 -257.8741455078125 53.34134292602539
-111.1130218505859 -259.9326171875 54.25693130493164
-110.2609176635742 -259.1151428222656 52.8487548828125
-109.7798309326172 -259.3134155273438 51.73274612426758
-110.3895874023438 -256.8539428710938 54.36879730224609
-110.4238586425781 -257.2393493652344 54.2078857421875
-109.9727783203125 -257.169921875 53.28021621704102
-110.7790756225586 -258.9903564453125 54.11806869506836
-109.811393737793 -257.5862121582031 52.74430465698242
-109.8161849975586 -257.9428100585938 52.5721435546875
-110.2376022338867 -259.1538391113281 52.88411331176758
-109.6639862060547 -258.3749389648438 52.03793334960938
-109.7546310424805 -258.947265625 51.95362091064453
-109.7235565185547 -259.2763671875 51.72744369506836
-110.687744140625 -257.0260620117188 54.98958587646484
-110.4767074584961 -257.0476989746094 54.52626419067383
-110.1649322509766 -256.8853759765625 53.93545532226563
-109.9306640625 -257.1725769042969 53.29385757446289
-111.169677734375 -260.2283935546875 54.47765731811523
-109.6552124023438 -258.0717163085938 52.26726913452148
-109.7121963500977 -258.5606994628906 52.15284729003906
-109.6952743530273 -259.2610473632813 51.7197265625
-110.4399108886719 -256.7006225585938 54.70932769775391
-110.3567199707031 -256.9171142578125 54.42538452148438
-110.0787734985352 -257.0809326171875 53.6501350402832
-110.8991394042969 -258.9710388183594 54.60649490356445
-110.1223220825195 -257.9438171386719 53.4238166809082
-109.6737976074219 -258.1888427734375 52.35115051269531
-110.0595016479492 -256.8475952148438 53.92583084106445
-109.9947128295898 -257.0813598632813 53.67227172851563
-110.1512451171875 -257.7226867675781 53.70052719116211
-110.9800415039063 -259.6232299804688 54.59194946289063
-110.8037414550781 -259.7098083496094 54.16633224487305
-110.0047607421875 -258.5171203613281 52.92987060546875
-110.2179794311523 -259.7865295410156 52.85311889648438
-110.6280517578125 -261.1040344238281 53.11956787109375
-111.1082611083984 -259.1032104492188 55.22884750366211
-110.8571472167969 -259.0945739746094 54.75033187866211
-109.9442977905273 -257.7653503417969 53.32344818115234
-109.7658462524414 -257.7869262695313 52.92201232910156
-110.136474609375 -259.2875366210938 53.00615310668945
-110.4215698242188 -256.8647766113281 54.91486740112305
-110.0401306152344 -256.9473571777344 54.02554702758789
-110.9738235473633 -258.948486328125 55.12228775024414
-110.8026123046875 -259.0464172363281 54.6977424621582
-109.8284072875977 -257.5641479492188 53.17165756225586
-110.9332122802734 -260.1292419433594 54.46481704711914
-109.8242721557617 -258.3450012207031 52.87720108032227
-110.7723846435547 -260.6844482421875 53.84248733520508
-110.2453384399414 -259.9951782226563 53.01461029052734
-110.2369079589844 -256.9718017578125 54.50825500488281
-109.9595947265625 -256.8911743164063 53.99192047119141
-110.8821105957031 -260.0818786621094 54.46477890014648
-109.3596725463867 -257.8536987304688 52.19568634033203
-110.201530456543 -260.0249633789063 53.02373123168945
-110.2522277832031 -256.7747802734375 54.82098388671875
-110.1714401245117 -256.973876953125 54.5257453918457
-114.3805541992188 -258.4916687011719 44.51272201538086
-109.9101638793945 -257.1852111816406 53.80204772949219
-110.8514709472656 -260.1275329589844 54.50934219360352
-109.7049331665039 -258.2749938964844 52.85777282714844
-110.7129211425781 -260.7747497558594 53.91307067871094
-110.1415939331055 -256.994140625 54.55277633666992
-109.8854598999023 -256.90185546875 54.02011871337891
-109.8538360595703 -257.1657104492188 53.80839538574219
-114.4187316894531 -258.5181579589844 44.54315185546875
-109.7529373168945 -257.664794921875 53.31708908081055
-110.8156433105469 -260.1863708496094 54.54260635375977
-110.1545257568359 -259.6635437011719 53.24469375610352
-109.8553771972656 -256.9239196777344 54.04830932617188
-109.9637451171875 -257.8323059082031 53.85991668701172
-109.6752014160156 -258.0573120117188 53.14563751220703
-110.5072326660156 -260.9639282226563 53.58053588867188
-114.5591583251953 -257.8788452148438 44.94518661499023
-109.6516418457031 -257.6788635253906 53.32986068725586
-109.6008377075195 -257.6531066894531 53.33266067504883
-109.5118408203125 -258.1456604003906 52.83365631103516
-110.6376571655273 -262.4473571777344 53.41644668579102
-110.3845672607422 -259.7281494140625 54.30971527099609
-109.6098022460938 -257.8440246582031 53.47848129272461
-110.4468383789063 -259.9131774902344 54.42530059814453
-110.6626739501953 -260.812255859375 54.52685165405273
-109.8184432983398 -257.9708251953125 54.03779602050781
-110.7572250366211 -260.2168579101563 55.14368057250977
-110.2707214355469 -262.2225646972656 53.40813064575195
-110.238037109375 -262.4743041992188 53.58300399780273
-114.8079605102539 -257.1282958984375 48.29258728027344
-114.7507247924805 -257.1864013671875 48.3642692565918
-114.7680587768555 -257.1734924316406 48.35859680175781
-114.8675537109375 -257.0725402832031 48.75410461425781
-114.7970199584961 -257.0892333984375 48.77453994750977
-114.7929534912109 -257.1040344238281 48.83892440795898
-114.799186706543 -257.1854858398438 48.86026000976563
-117.8858413696289 -257.2525939941406 51.70336151123047
-114.9276885986328 -257.052978515625 49.27594757080078
-114.8568649291992 -257.0370483398438 49.30894470214844
-114.8211364746094 -257.0491333007813 49.33728408813477
-114.7950210571289 -257.089111328125 49.41537094116211
-117.3181610107422 -258.4437866210938 51.14623641967773
-117.1787719726563 -255.8142700195313 52.45429992675781
-116.8417816162109 -258.4915161132813 50.75730895996094
-114.9233856201172 -256.9586181640625 49.75830841064453
-114.8887557983398 -256.9756469726563 49.81520080566406
-114.8701248168945 -257.0048828125 49.81146621704102
-117.5780410766602 -255.4662933349609 53.28865814208984
-117.7022399902344 -256.3829345703125 52.92372131347656
-116.4728775024414 -256.2077941894531 51.86252975463867
-114.852294921875 -257.0093688964844 49.880859375
-118.1844482421875 -256.3808898925781 53.47201156616211
-108.6414947509766 -262.525634765625 52.87001800537109
-108.7041625976563 -262.35888671875 52.69815063476563
-108.6843185424805 -262.5329284667969 52.44778060913086
-108.8764190673828 -262.3998413085938 52.70053863525391
-108.9223098754883 -262.3559265136719 52.6494255065918
-108.8683624267578 -262.0745544433594 51.63308334350586
-109.0346527099609 -262.2239074707031 51.74494552612305
-109.2397003173828 -262.3828735351563 52.19514083862305
-109.1042098999023 -262.1388854980469 52.02188873291016
-109.49609375 -261.8987426757813 52.94428253173828
-109.4918365478516 -262.4024658203125 52.56595611572266
-109.9866027832031 -262.5445861816406 53.5024528503418
