-834.3435668945313 -689.4479370117188 34.12785339355469
-834.6883544921875 -690.0965576171875 34.86341094970703
-833.3406982421875 -689.8821411132813 33.1541862487793
-835.0516967773438 -690.5349731445313 35.5135498046875
-835.116943359375 -690.2943115234375 35.46728897094727
-833.5060424804688 -689.8071899414063 33.30998229980469
-835.1275024414063 -689.911865234375 35.28461074829102
-835.0357666015625 -689.2892456054688 34.85931015014648
-835.2738037109375 -689.5934448242188 35.29383087158203
-833.7562255859375 -689.740234375 33.56908416748047
-834.6055297851563 -690.1953735351563 34.78807067871094
-834.6991577148438 -690.0943603515625 34.84656524658203
-833.3451538085938 -689.99951171875 33.19657135009766
-833.5155639648438 -689.8313598632813 33.31124114990234
-835.3824462890625 -690.641845703125 35.92231750488281
-835.0467529296875 -689.29296875 34.84811782836914
-835.2874755859375 -689.601806640625 35.28569030761719
-834.052001953125 -689.9241943359375 33.97885131835938
-833.3533325195313 -690.0422973632813 33.20516204833984
-833.5257568359375 -689.7926025390625 33.28176116943359
-835.2373046875 -690.17236328125 35.48442077636719
-835.39892578125 -690.2326049804688 35.70293807983398
-835.2984008789063 -689.603271484375 35.27084350585938
-833.7291870117188 -688.7410888671875 32.99631500244141
-834.0507202148438 -690.9136352539063 34.44888687133789
-834.0593872070313 -689.8887329101563 33.94363403320313
-834.6798095703125 -690.4331665039063 34.93374633789063
-834.7545776367188 -690.23046875 34.92015838623047
-834.88232421875 -690.2525634765625 35.07935333251953
-835.0350952148438 -690.343505859375 35.30177307128906
-835.4092407226563 -690.2263793945313 35.67820739746094
-835.3112182617188 -689.6077270507813 35.25796508789063
-833.7376708984375 -688.7483520507813 32.99101638793945
-834.0635986328125 -690.9077758789063 34.42974853515625
-834.036376953125 -689.5684204101563 33.7326774597168
-834.6522827148438 -689.7487182617188 34.53338623046875
-835.15625 -690.2605590820313 35.36689376831055
-835.269287109375 -690.1912231445313 35.46365356445313
-835.4398803710938 -690.2730712890625 35.70101547241211
-835.3209838867188 -689.6027221679688 35.235107421875
-833.746337890625 -688.75048828125 32.98238754272461
-834.0745849609375 -690.8729248046875 34.39269638061523
-834.6556396484375 -689.719482421875 34.49704742431641
-833.308837890625 -689.9130859375 33.0211181640625
-833.3853759765625 -690.0452880859375 33.1728515625
-834.982421875 -690.0755615234375 35.0463981628418
-833.5565795898438 -689.8657836914063 33.28342056274414
-835.2784423828125 -690.18408203125 35.44021987915039
-835.4757690429688 -690.3375854492188 35.74203491210938
-835.3250732421875 -689.5872802734375 35.20438766479492
-833.7538452148438 -688.7487182617188 32.97268676757813
-834.07421875 -690.734130859375 34.29659271240234
-834.2861328125 -689.8961791992188 34.13349914550781
-834.77197265625 -690.156982421875 34.81691741943359
-834.9046020507813 -689.7742309570313 34.78525924682617
-835.2498168945313 -690.4824829101563 35.52229309082031
-835.1986083984375 -689.9220581054688 35.19400024414063
-835.2606811523438 -689.4039916992188 35.01629638671875
-833.76025390625 -688.7361450195313 32.95771789550781
-833.884033203125 -689.4864501953125 33.45739364624023
-834.0855102539063 -690.7340698242188 34.28324508666992
-835.6556396484375 -689.3844604492188 35.46060943603516
-834.333984375 -690.12255859375 34.26626205444336
-834.4718627929688 -690.3016357421875 34.50906753540039
-834.439697265625 -689.5771484375 34.12799072265625
-834.8281860351563 -689.8705444335938 34.71178436279297
-833.409912109375 -689.9443969726563 33.10663223266602
-835.1136474609375 -690.4380493164063 35.30791854858398
-834.9884643554688 -689.625732421875 34.77877426147461
-835.275390625 -689.4114379882813 35.00520706176758
-833.7692260742188 -688.7366333007813 32.94770812988281
-833.8948364257813 -689.484375 33.44350051879883
-834.7481689453125 -690.462646484375 34.87416458129883
-834.8967895507813 -689.6732177734375 34.67198181152344
-835.0165405273438 -689.3375854492188 34.65049362182617
-835.2545166015625 -689.6577758789063 35.07255554199219
-835.2882690429688 -689.42041015625 34.99931335449219
-833.7754516601563 -688.7239379882813 32.93280029296875
-835.4893188476563 -689.583740234375 35.30545806884766
-834.0640869140625 -691.5028076171875 34.55865097045898
-834.2174682617188 -689.8729858398438 33.96575927734375
-834.4033203125 -689.8020629882813 34.14385604858398
-834.3799438476563 -689.190185546875 33.83232116699219
-834.7650146484375 -690.4812622070313 34.87108612060547
-834.9179077148438 -689.707275390625 34.6842155456543
-835.3033447265625 -690.5269165039063 35.5037727355957
-835.724365234375 -690.0906982421875 35.77883529663086
-835.5881958007813 -689.4727172851563 35.33634948730469
-834.3944091796875 -689.6953735351563 34.05857467651367
-834.3916625976563 -689.2011108398438 33.82762908935547
-834.7691040039063 -690.444091796875 34.82766342163086
-834.84228515625 -690.2456665039063 34.81902694702148
-835.3632202148438 -690.2535400390625 35.41218185424805
-835.3462524414063 -689.8392333984375 35.20204925537109
-833.9728393554688 -690.0765991210938 33.73773574829102
-835.6027221679688 -689.48095703125 35.32724761962891
-834.4093017578125 -689.7183227539063 34.06043243408203
-834.40234375 -689.2070922851563 33.81951522827148
-834.8074951171875 -690.5552368164063 34.89102172851563
-835.0361328125 -690.45556640625 35.10337829589844
-833.4487915039063 -689.9945068359375 33.08549118041992
-835.1165771484375 -690.2857666015625 35.11669158935547
-835.3998413085938 -689.6132202148438 35.12939453125
-833.8648681640625 -689.698486328125 33.4199104309082
-833.9852294921875 -690.0918579101563 33.73325347900391
-835.481689453125 -689.2060546875 35.03606033325195
-834.4229125976563 -689.7376708984375 34.06060028076172
-834.4130859375 -689.216064453125 33.81415176391602
-835.0426025390625 -690.4364013671875 35.07231903076172
-835.1340942382813 -690.3049926757813 35.11576080322266
-835.0504760742188 -689.65576171875 34.72877883911133
-835.3845825195313 -690.2462158203125 35.37072372436523
-833.708740234375 -689.76953125 33.25506973266602
-835.4092407226563 -689.611328125 35.11186981201172
-833.8753662109375 -689.7131958007813 33.41670989990234
-833.9957275390625 -690.0928955078125 33.72164916992188
-835.43896484375 -689.0980834960938 34.91364669799805
-834.1844482421875 -690.9491577148438 34.3165168762207
-834.424560546875 -689.228271484375 33.81097412109375
-833.4681396484375 -689.9989013671875 33.06659698486328
-835.16015625 -690.3515014648438 35.13649749755859
-833.5533447265625 -689.70556640625 33.0318717956543
-833.6200561523438 -688.8396606445313 32.72281265258789
-835.391845703125 -690.2341918945313 35.34350967407227
-833.7216186523438 -689.8690185546875 33.2923698425293
-833.7863159179688 -689.4584350585938 33.18277740478516
-835.3712158203125 -689.496826171875 34.99097442626953
-834.0051879882813 -691.39208984375 34.28411865234375
-835.6182250976563 -689.44970703125 35.24654388427734
-834.3656616210938 -689.8554077148438 33.99965286254883
-834.5750732421875 -689.87939453125 34.24388885498047
-834.9271850585938 -689.9501342773438 34.66794967651367
-833.478271484375 -690.0105590820313 33.06044387817383
-834.986083984375 -689.4039916992188 34.49224090576172
-835.066162109375 -689.3111572265625 34.54055023193359
-835.4602661132813 -689.37939453125 35.01048278808594
-834.3720703125 -689.3240356445313 33.75031661987305
-834.9419555664063 -689.9644165039063 34.66410446166992
-833.572998046875 -690.0140380859375 33.14596939086914
-835.2449951171875 -690.134765625 35.07553863525391
-833.8253784179688 -688.6749877929688 32.84518814086914
-834.5146484375 -689.9922485351563 34.17458343505859
-834.939208984375 -690.3458862304688 34.7979736328125
-834.9562377929688 -689.9742431640625 34.65597152709961
-833.5833129882813 -689.9962768554688 33.12696075439453
-833.6446533203125 -688.9022827148438 32.72547149658203
-835.2645263671875 -689.7939453125 34.91948318481445
-835.2002563476563 -689.3079223632813 34.63801193237305
-833.8139038085938 -689.4575805664063 33.15086364746094
-833.8993530273438 -688.6680908203125 32.90655899047852
-834.5294189453125 -690.00732421875 34.16939163208008
-834.4682006835938 -689.2550659179688 33.78004837036133
-834.8360595703125 -690.3689575195313 34.66245651245117
-834.9498291015625 -690.3374633789063 34.77451324462891
-834.9716796875 -689.9859619140625 34.64826965332031
-833.5934448242188 -689.8795166015625 33.06465530395508
-835.3056640625 -690.2392578125 35.12512588500977
-835.2772827148438 -689.7965698242188 34.90444564819336
-833.8258666992188 -689.4904174804688 33.15569305419922
-833.9415893554688 -689.9188842773438 33.4648551940918
-834.5407104492188 -690.0179443359375 34.16458511352539
-833.6013793945313 -689.8461303710938 33.04126739501953
-835.3167114257813 -690.2423706054688 35.11336517333984
-833.7239379882813 -688.8278198242188 32.74805068969727
-835.3427734375 -689.614501953125 34.87599182128906
-833.8353881835938 -689.5187377929688 33.16070938110352
-834.0013427734375 -689.5272216796875 33.34647750854492
-834.2765502929688 -690.2275390625 33.93486022949219
-834.2404174804688 -689.3701782226563 33.53617095947266
-834.9193725585938 -689.7400512695313 34.43524551391602
-835.3299560546875 -690.2437133789063 35.09615707397461
-833.670654296875 -688.990478515625 32.73876190185547
-833.7339477539063 -688.8638305664063 32.75545883178711
-835.357421875 -689.6227416992188 34.86615753173828
-835.5352783203125 -689.4331665039063 34.98168182373047
-834.0147094726563 -689.557861328125 33.35069274902344
-835.7045288085938 -689.4995727539063 35.19505310058594
-834.2838745117188 -690.2044677734375 33.90868759155273
-834.5673828125 -690.0391845703125 34.14983367919922
-835.0079956054688 -690.0003662109375 34.61501693725586
-835.1401977539063 -690.0330810546875 34.77298736572266
-835.049072265625 -689.4164428710938 34.41786956787109
-833.6782836914063 -688.9917602539063 32.73078918457031
-833.7918701171875 -689.8833618164063 33.22087478637695
-834.1547241210938 -690.7877197265625 33.98793792724609
-835.7168579101563 -689.50439453125 35.18373107910156
-835.572265625 -688.9628295898438 34.80136871337891
-834.2921142578125 -690.188232421875 33.88653182983398
-834.7134399414063 -690.1574096679688 34.33257675170898
-834.8978271484375 -690.4324340820313 34.64605331420898
-835.1182250976563 -689.93359375 34.68138885498047
-835.0589599609375 -689.417724609375 34.40533828735352
-833.6860961914063 -688.9967041015625 32.72442626953125
-835.162109375 -689.3871459960938 34.50505065917969
-835.4033813476563 -689.6857299804688 34.89012145996094
-834.1063842773438 -691.3275756835938 34.1285285949707
-835.5753784179688 -688.9525146484375 34.77674865722656
-834.3193969726563 -690.29150390625 33.93064498901367
-834.4825439453125 -690.0296630859375 34.00149154663086
-834.5933837890625 -690.0569458007813 34.13274383544922
-834.7276000976563 -690.1658325195313 34.32240676879883
-834.9127807617188 -689.9993896484375 34.45574569702148
-834.9474487304688 -689.7290649414063 34.38384246826172
-835.0723876953125 -689.425537109375 34.39631652832031
-833.6948852539063 -689.0037841796875 32.71793746948242
-835.1460571289063 -689.3179321289063 34.43260192871094
-833.883544921875 -691.2090454101563 33.80774688720703
-834.1285400390625 -690.328369140625 33.71913528442383
-835.5783081054688 -688.9400634765625 34.748291015625
-834.3046264648438 -690.1232299804688 33.82258987426758
-834.606201171875 -690.0679931640625 34.12636566162109
-834.7822265625 -689.5031127929688 34.09012222290039
-834.9625854492188 -689.4008178710938 34.24404525756836
-835.0817260742188 -689.4252319335938 34.38255310058594
-835.5285034179688 -690.2807006835938 35.20833206176758
-833.9680786132813 -689.5634765625 33.21817779541016
-835.4515991210938 -689.173828125 34.68156433105469
-834.0761108398438 -689.7710571289063 33.41716384887695
-834.306884765625 -690.0704345703125 33.78029251098633
-834.529541015625 -690.1647338867188 34.05752182006836
-834.4830932617188 -689.4534301757813 33.72544097900391
-834.5491333007813 -689.3316650390625 33.74828720092773
-834.9613647460938 -689.3695068359375 34.20722579956055
-833.9231567382813 -691.47119140625 33.89960098266602
-835.6685791015625 -690.2439575195313 35.31565856933594
-833.9189453125 -689.8889770507813 33.27325439453125
-834.1226806640625 -691.08447265625 33.96205520629883
-835.462646484375 -689.1781005859375 34.67124557495117
-834.4474487304688 -690.2373046875 33.97320938110352
-834.4930419921875 -689.4572143554688 33.71614074707031
-835.0642700195313 -689.6461791992188 34.40337753295898
-835.4127197265625 -690.2807006835938 35.02631759643555
-835.6986083984375 -690.656005859375 35.48033142089844
-835.683349609375 -690.251953125 35.30547714233398
-833.847900390625 -688.86669921875 32.7785530090332
-835.496337890625 -689.5051879882813 34.81185531616211
-834.188232421875 -689.1824951171875 33.2596321105957
-834.2791748046875 -689.2294311523438 33.37512969970703
-834.8258666992188 -689.5523681640625 34.08484649658203
-835.1047973632813 -689.732666015625 34.45296096801758
-835.54443359375 -690.604248046875 35.26068496704102
-835.3568115234375 -689.7555541992188 34.73127365112305
-835.7608642578125 -690.4047241210938 35.41481781005859
-834.1589965820313 -691.1910400390625 33.98448181152344
-835.9149169921875 -690.0734252929688 35.45121002197266
-834.2583618164063 -690.2164306640625 33.71623611450195
-834.2490234375 -689.5033569335938 33.42581558227539
-834.2757568359375 -689.157958984375 33.32211685180664
-834.7661743164063 -690.58349609375 34.39014053344727
-835.1578979492188 -690.225830078125 34.67048263549805
-835.47802734375 -690.7855224609375 35.22566604614258
-835.1763305664063 -689.5731201171875 34.44033432006836
-833.9320678710938 -690.97314453125 33.62987518310547
-835.7535400390625 -690.3565673828125 35.35497665405273
-834.0390014648438 -689.8862915039063 33.33140182495117
-835.9253540039063 -690.0692749023438 35.42809677124023
-834.2634887695313 -690.170166015625 33.67763900756836
-834.267822265625 -689.5673828125 33.45081329345703
-834.8912963867188 -690.557373046875 34.48789215087891
-835.050537109375 -690.245849609375 34.53896331787109
-835.0322875976563 -689.4634399414063 34.22321701049805
-835.1795043945313 -689.557373046875 34.41511535644531
-835.374267578125 -689.746826171875 34.69371032714844
-833.9599609375 -691.2288818359375 33.73153305053711
-835.7614135742188 -690.349609375 35.33308410644531
-833.8699951171875 -688.8506469726563 32.74371719360352
-834.112060546875 -689.6680908203125 33.30699157714844
-834.3116455078125 -689.265625 33.36352157592773
-834.4724731445313 -689.6246948242188 33.66822814941406
-834.900634765625 -690.5488891601563 34.46747207641602
-835.045166015625 -689.4735717773438 34.21762466430664
-835.4946899414063 -689.7030029296875 34.77932357788086
-833.88134765625 -688.89697265625 32.75661849975586
-833.9888305664063 -689.2428588867188 32.99853134155273
-835.7191162109375 -689.6055297851563 34.98032760620117
-834.1319580078125 -689.7532958984375 33.33904647827148
-834.3217163085938 -689.274169921875 33.35776519775391
-834.9894409179688 -690.3809204101563 34.47193145751953
-833.8092651367188 -690.0146484375 33.0744743347168
-835.4952392578125 -689.6810302734375 34.74620056152344
-833.9942016601563 -689.2173461914063 32.97659301757813
-834.24951171875 -690.5986328125 33.75216674804688
-834.43212890625 -689.8084716796875 33.64861297607422
-834.898193359375 -689.6317749023438 34.07374572753906
-833.6535034179688 -690.4703369140625 33.05419540405273
-833.819580078125 -690.0184326171875 33.06462860107422
-835.4075317382813 -689.7526245117188 34.65324783325195
-833.8927001953125 -688.855712890625 32.71989822387695
-835.5111694335938 -689.1445922851563 34.53969573974609
-834.3984985351563 -691.6517333984375 34.26395416259766
-835.5809326171875 -689.0354614257813 34.57311630249023
-834.27294921875 -689.3802490234375 33.30371475219727
-834.3734130859375 -689.44970703125 33.43402099609375
-835.0914306640625 -690.232177734375 34.4688606262207
-835.0797119140625 -689.4888916015625 34.18785858154297
-833.76904296875 -688.9456176757813 32.6057014465332
-833.8998413085938 -688.849609375 32.70804595947266
-835.5205078125 -689.1444702148438 34.52496719360352
-834.3811645507813 -689.444580078125 33.42008209228516
-834.677490234375 -689.9185791015625 33.89880752563477
-835.0904541015625 -689.4927368164063 34.17755126953125
-833.7576293945313 -690.1802368164063 33.01492691040039
-835.9276123046875 -690.5933227539063 35.44464111328125
-835.4443359375 -689.2232055664063 34.45060348510742
-834.0889282226563 -689.822021484375 33.23321533203125
-835.525634765625 -689.1370849609375 34.50470352172852
-835.6242065429688 -689.0831909179688 34.58831405639648
-834.4053344726563 -689.5172119140625 33.44819641113281
-834.701416015625 -689.9715576171875 33.91634368896484
-833.6817626953125 -690.3004150390625 32.95463180541992
-834.0200805664063 -691.04052734375 33.56439208984375
-833.9729614257813 -689.438232421875 32.95562362670898
-835.5405883789063 -689.14697265625 34.49796676635742
-835.6422119140625 -689.0985107421875 34.58659362792969
-834.4155883789063 -689.5241088867188 33.44081497192383
-834.8906860351563 -690.2423706054688 34.18369293212891
-834.76708984375 -689.0836791992188 33.65149307250977
-833.6902465820313 -690.25146484375 32.92549133300781
-835.2195434570313 -689.7945556640625 34.3682746887207
-833.800048828125 -690.67333984375 33.18478012084961
-834.0311279296875 -689.935546875 33.16905212402344
-834.0659790039063 -689.465576171875 33.04280090332031
-835.5477294921875 -689.1437377929688 34.48141479492188
-834.1995849609375 -689.2442016601563 33.10443115234375
-834.4275512695313 -689.53955078125 33.43815612792969
-834.6482543945313 -688.9660034179688 33.46840667724609
-834.7803955078125 -689.0997924804688 33.65103149414063
-835.3631591796875 -689.8255615234375 34.50308227539063
-833.8684692382813 -690.0196533203125 33.00941848754883
-835.2550048828125 -689.0042724609375 34.10829925537109
-834.0413818359375 -689.9444580078125 33.16201400756836
-834.0792236328125 -689.5047607421875 33.05094909667969
-835.5576782226563 -689.1460571289063 34.46977615356445
-834.2079467773438 -689.2454833984375 33.09506988525391
-834.8253173828125 -690.3530883789063 34.1043701171875
-834.9146118164063 -690.252197265625 34.16189575195313
-833.6923217773438 -689.6824340820313 32.69429397583008
-835.3754272460938 -689.8311157226563 34.49284362792969
-833.8771362304688 -688.9608764648438 32.64092254638672
-834.0507202148438 -689.9441528320313 33.15089416503906
-834.108642578125 -689.6737670898438 33.11918258666992
-835.56689453125 -689.1469116210938 34.4568977355957
-834.6404418945313 -689.9873046875 33.76521682739258
-834.8378295898438 -690.3573608398438 34.0921516418457
-834.9270629882813 -690.2564086914063 34.14972305297852
-835.8607177734375 -690.65234375 35.24060440063477
-833.8861083984375 -688.9747314453125 32.6376838684082
-834.061767578125 -689.9550170898438 33.14399719238281
-834.1282348632813 -689.7547607421875 33.14531326293945
-836.2504272460938 -690.462890625 35.57662582397461
-834.9238891601563 -690.2010498046875 34.10022354125977
-833.9878540039063 -690.017822265625 33.06611633300781
-834.0731201171875 -689.96240234375 33.13484573364258
-836.1522827148438 -690.5698852539063 35.47793579101563
-834.6514282226563 -690.4303588867188 33.87351226806641
-834.9051513671875 -690.09521484375 34.02203750610352
-833.99951171875 -690.0431518554688 33.06577682495117
-836.1419067382813 -690.5240478515625 35.42229080200195
-834.7680053710938 -690.402099609375 33.95841598510742
-834.901123046875 -690.0440673828125 33.97760391235352
-833.484375 -690.0628662109375 32.52927780151367
-834.7394409179688 -689.1326904296875 33.51827621459961
-835.4481201171875 -691.0203247070313 34.84906768798828
-833.6633911132813 -690.4509887695313 32.83526229858398
-835.3157958984375 -689.8872680664063 34.34771728515625
-833.9192504882813 -690.0533447265625 32.96720504760742
-834.09326171875 -689.9761962890625 33.11882400512695
-834.9696655273438 -690.2525634765625 34.09013748168945
-834.7406616210938 -689.1094970703125 33.49269866943359
-835.11083984375 -689.6181640625 34.02998352050781
-833.764404296875 -690.380859375 32.89429092407227
-835.3243408203125 -689.8832397460938 34.33080673217773
-834.087890625 -689.8480224609375 33.05233764648438
-834.9838256835938 -690.2633056640625 34.08187484741211
-834.7276611328125 -689.038818359375 33.43693542480469
-835.3370971679688 -689.8887939453125 34.31976318359375
-833.9859619140625 -689.6109008789063 32.85458755493164
-834.1043090820313 -689.9061279296875 33.06591796875
-834.421142578125 -690.123779296875 33.45272827148438
-835.3441772460938 -690.2178344726563 34.40534973144531
-833.7862548828125 -690.4214477539063 32.88588333129883
-835.8170166015625 -690.3831787109375 34.93207168579102
-833.9190063476563 -688.8541870117188 32.53544998168945
-836.045654296875 -690.5553588867188 35.21551895141602
-834.1133422851563 -689.9055786132813 33.0548210144043
-835.5401000976563 -689.2123413085938 34.28865051269531
-834.2500610351563 -689.606201171875 33.09955215454102
-834.5266723632813 -690.0795288085938 33.51581192016602
-834.7086181640625 -689.9721069335938 33.6650390625
-835.2238159179688 -690.195068359375 34.24935913085938
-835.3548583984375 -690.2141723632813 34.38644790649414
-833.853271484375 -689.8171997070313 32.74553680419922
-836.0473022460938 -690.5306396484375 35.17698669433594
-835.5547485351563 -689.221923828125 34.28148651123047
-835.638671875 -688.9158325195313 34.27140808105469
-835.7621459960938 -688.910888671875 34.39353561401367
-834.2664794921875 -688.40380859375 32.72550964355469
-834.7198486328125 -689.236083984375 33.43059921264648
-833.6062622070313 -689.2982177734375 32.32481002807617
-835.2344970703125 -690.195556640625 34.23545074462891
-833.6761474609375 -689.20166015625 32.36550140380859
-835.1437377929688 -689.6007080078125 33.96426391601563
-833.8624877929688 -689.8257446289063 32.73862457275391
-835.7080688476563 -690.4078369140625 34.7724494934082
-833.8906860351563 -689.1522827148438 32.56441879272461
-835.3754272460938 -689.0770263671875 34.03647232055664
-833.9816284179688 -688.6765747070313 32.51211929321289
-835.6588745117188 -688.9371337890625 34.27693176269531
-835.7650756835938 -688.9019165039063 34.3722038269043
-835.2440185546875 -690.1928100585938 34.21946334838867
-833.683349609375 -689.196533203125 32.35544967651367
-833.8638305664063 -689.7179565429688 32.68929672241211
-835.7267456054688 -690.4257202148438 34.76935195922852
-835.3125610351563 -689.1671142578125 33.98017501831055
-833.9818725585938 -688.625732421875 32.48271179199219
-834.3400268554688 -689.9892578125 33.24248886108398
-835.779296875 -688.9119873046875 34.36798858642578
-835.25390625 -690.1871337890625 34.1999397277832
-835.291748046875 -689.951171875 34.16775131225586
-835.593505859375 -690.4089965820313 34.60197067260742
-835.7503051757813 -690.4518432617188 34.77000427246094
-833.9652099609375 -689.0083618164063 32.56184387207031
-834.1619873046875 -689.9844360351563 33.04168319702148
-835.8006591796875 -688.931884765625 34.37091827392578
-834.6782836914063 -689.328125 33.35771942138672
-835.26318359375 -690.1856689453125 34.18573760986328
-835.7819213867188 -690.5018920898438 34.79045104980469
-834.0416259765625 -690.5614624023438 33.07075881958008
-835.3622436523438 -689.2387084960938 34.00724029541016
-834.172119140625 -689.9963989257813 33.03633880615234
-835.8134765625 -688.9403076171875 34.36598968505859
-834.6118774414063 -689.390625 33.28866195678711
-834.6932983398438 -689.3483276367188 33.35665130615234
-835.2752075195313 -690.1864013671875 34.17032623291016
-834.029541015625 -690.3095092773438 32.96274566650391
-835.3591918945313 -689.2103271484375 33.97236251831055
-835.6015625 -689.475341796875 34.28707885742188
-834.1795654296875 -689.9740600585938 33.01469039916992
-835.565185546875 -689.1528930664063 34.15854644775391
-834.3756103515625 -690.6585083007813 33.40193939208984
-835.8076171875 -688.9152221679688 34.32887649536133
-834.6109008789063 -689.3538208007813 33.25814437866211
-835.2885131835938 -690.19482421875 34.16147232055664
-833.75146484375 -690.1353149414063 32.62075042724609
-835.466552734375 -690.3380126953125 34.37677764892578
-833.7865600585938 -689.2049560546875 32.39414215087891
-835.9696655273438 -690.5387573242188 34.92720031738281
-834.099609375 -689.3049926757813 32.72877502441406
-836.3723754882813 -690.396240234375 35.28181076049805
-835.8443603515625 -688.9619140625 34.35697174072266
-835.5121459960938 -691.684326171875 34.76906204223633
-835.0358276367188 -689.7546997070313 33.76418304443359
-835.304443359375 -690.2069091796875 34.15309906005859
-833.7935180664063 -689.1829223632813 32.37718963623047
-834.1500244140625 -690.341064453125 33.04508590698242
-834.1094970703125 -689.3132934570313 32.7215576171875
-834.178955078125 -689.2435913085938 32.7700309753418
-835.8433227539063 -688.9448852539063 34.32712173461914
-835.0245361328125 -689.691650390625 33.71406936645508
-833.6608276367188 -689.3135375976563 32.26812362670898
-835.3057250976563 -690.1810302734375 34.12296295166016
-835.27685546875 -689.4811401367188 33.90181350708008
-835.9986572265625 -690.5486450195313 34.89925003051758
-835.5584716796875 -689.327392578125 34.1337776184082
-834.0833129882813 -689.0657348632813 32.61159133911133
-835.8649291992188 -689.6812133789063 34.52984237670898
-834.4061889648438 -690.6433715820313 33.35555267333984
-835.7078857421875 -689.1390380859375 34.22737884521484
-834.2167358398438 -688.5717163085938 32.60657119750977
-835.8711547851563 -688.9766235351563 34.34170150756836
-836.0103759765625 -690.5507202148438 34.88529968261719
-835.5740356445313 -689.3422241210938 34.13259506225586
-834.2816772460938 -689.7969970703125 32.98569869995117
-835.87060546875 -688.9630737304688 34.31745147705078
-835.261962890625 -691.188720703125 34.30284881591797
-833.7086181640625 -690.4266967773438 32.57840728759766
-835.1700439453125 -689.742431640625 33.82594299316406
-836.0336303710938 -690.5745849609375 34.88486480712891
-834.14892578125 -690.0938720703125 32.91574096679688
-834.2999877929688 -689.852783203125 32.99771881103516
-835.8746337890625 -688.9552612304688 34.29669952392578
-834.801025390625 -689.9099731445313 33.4924430847168
-835.269775390625 -691.1737670898438 34.27895355224609
-835.4332275390625 -691.259033203125 34.45920562744141
-835.2302856445313 -689.8842163085938 33.89972686767578
-833.794921875 -690.0862426757813 32.55292129516602
-835.208251953125 -689.5209350585938 33.7823371887207
-833.8870849609375 -690.13671875 32.65489959716797
-833.8699951171875 -688.8849487304688 32.31123733520508
-833.9328002929688 -688.8286743164063 32.35700607299805
-836.0490112304688 -690.5829467773438 34.87429809570313
-834.0037231445313 -688.8470458984375 32.43011856079102
-835.747314453125 -689.6563110351563 34.3381462097168
-834.2046508789063 -689.7612915039063 32.86260986328125
-835.6250610351563 -689.1669921875 34.09077453613281
-834.2918090820313 -689.7478637695313 32.94296264648438
-835.8873291015625 -688.9623413085938 34.28966522216797
-835.2902221679688 -690.02001953125 33.9673957824707
-835.7124633789063 -690.800537109375 34.57646560668945
-835.3372192382813 -689.5377197265625 33.88697814941406
-833.8997192382813 -689.1361694335938 32.38817977905273
-836.0732421875 -690.60693359375 34.87276077270508
-834.0771484375 -689.3695678710938 32.61848068237305
-834.1975708007813 -688.694580078125 32.56028747558594
-833.7735595703125 -689.3370361328125 32.30299758911133
-835.3514404296875 -689.5501098632813 33.88237762451172
-834.1133422851563 -691.425048828125 33.15750885009766
-834.0991821289063 -688.920654296875 32.50888824462891
-834.1483154296875 -688.77783203125 32.51962661743164
-834.2066040039063 -688.70751953125 32.55753326416016
-834.2614135742188 -688.6270751953125 32.5894889831543
-834.857666015625 -690.0106811523438 33.506103515625
-835.4344482421875 -691.6053466796875 34.46030426025391
-835.2103271484375 -690.0716552734375 33.85824203491211
-835.2108154296875 -689.4558715820313 33.70290374755859
-834.11669921875 -691.3377075195313 33.11456680297852
-833.978759765625 -689.05615234375 32.41286087036133
-834.091552734375 -688.8231811523438 32.46213150024414
-834.2796020507813 -688.682861328125 32.60622406005859
-835.2258911132813 -690.0879516601563 33.85430526733398
-834.1275024414063 -689.5756225585938 32.6668815612793
-835.60205078125 -689.28857421875 34.01296997070313
-834.193115234375 -689.4507446289063 32.69845581054688
-834.146484375 -688.6886596679688 32.46646499633789
-834.8340454101563 -691.2755737304688 33.75666046142578
-835.2342529296875 -690.0797119140625 33.83454132080078
-834.0704345703125 -689.0811157226563 32.47341537475586
-835.6142578125 -689.293212890625 34.00194549560547
-834.2120971679688 -689.5160522460938 32.71282958984375
-834.302978515625 -689.5508422851563 32.80727005004883
-835.0304565429688 -690.9738159179688 33.83214950561523
-834.885009765625 -689.9973754882813 33.45918655395508
-835.2442626953125 -690.0763549804688 33.81765365600586
-834.22900390625 -689.5667114257813 32.72119903564453
-834.3062744140625 -689.516845703125 32.78216171264648
-834.8965454101563 -690.0068969726563 33.45241546630859
-833.7968139648438 -690.6720581054688 32.55766677856445
-833.8668823242188 -690.2136840820313 32.51603698730469
-834.7225952148438 -687.7972412109375 32.76310348510742
-834.259521484375 -691.173828125 33.1107292175293
-835.879150390625 -689.7777709960938 34.3233528137207
-834.9863891601563 -687.86767578125 33.02831268310547
-834.314208984375 -689.51904296875 32.77360153198242
-834.9069213867188 -690.008056640625 33.43989181518555
-835.4453735351563 -691.41943359375 34.27551651000977
-835.1898803710938 -689.8656616210938 33.67216873168945
-833.8825073242188 -690.3082885742188 32.53254318237305
-834.7262573242188 -687.7927856445313 32.7519416809082
-834.2749633789063 -691.2051391601563 33.10755157470703
-834.4437866210938 -690.8139038085938 33.17533111572266
-834.9886474609375 -687.8607788085938 33.01412963867188
-834.32421875 -689.5269775390625 32.76606750488281
-834.9193115234375 -690.01611328125 33.4307975769043
-835.453369140625 -691.4025268554688 34.24953079223633
-835.2481689453125 -690.0018920898438 33.73513031005859
-834.078857421875 -689.5106811523438 32.5145378112793
-834.1765747070313 -689.6194458007813 32.63048934936523
-834.4721069335938 -690.9205322265625 33.20198822021484
-834.3412475585938 -689.5733642578125 32.77375030517578
-834.9283447265625 -690.016845703125 33.41960525512695
-835.2800903320313 -690.066162109375 33.75880432128906
-833.9456787109375 -690.9671020507813 32.70078659057617
-834.7391357421875 -687.7976684570313 32.73971176147461
-834.2965087890625 -691.2015991210938 33.0799446105957
-834.480712890625 -690.912109375 33.18658447265625
-834.3435668945313 -689.5443115234375 32.75275039672852
-835.8258666992188 -689.14501953125 34.05873489379883
-834.938720703125 -690.0178833007813 33.40702056884766
-835.3292236328125 -690.1741943359375 33.80481338500977
-833.839111328125 -689.3005981445313 32.21239471435547
-833.91748046875 -689.3355102539063 32.29282760620117
-835.4701538085938 -689.3701171875 33.75634765625
-834.8919677734375 -687.9501953125 32.90235137939453
-834.3506469726563 -690.0558471679688 32.85321807861328
-835.8297729492188 -689.1361694335938 34.03839492797852
-834.9495239257813 -690.0206298828125 33.39527130126953
-834.1914672851563 -691.0645751953125 32.90364456176758
-835.47265625 -689.3555297851563 33.73381423950195
-834.8966674804688 -687.9473876953125 32.89162445068359
-834.4172973632813 -691.083251953125 33.11648178100586
-835.6473999023438 -689.2355346679688 33.86933135986328
-834.3602905273438 -690.0565185546875 32.84169769287109
-834.4554443359375 -689.5786743164063 32.82626724243164
-835.338623046875 -690.8818969726563 33.92086410522461
-833.9354248046875 -689.371826171875 32.28612518310547
-834.20263671875 -691.0765380859375 32.89557266235352
-834.904296875 -687.9520874023438 32.88695907592773
-834.5092163085938 -690.8890380859375 33.13820648193359
-834.5560302734375 -690.539306640625 33.10678863525391
-834.6895141601563 -689.7437133789063 33.05405426025391
-834.7744750976563 -689.3610229492188 33.05105590820313
-833.8619384765625 -689.3064575195313 32.18735885620117
-833.9459228515625 -689.3949584960938 32.28302764892578
-834.0173950195313 -689.3356323242188 32.33629989624023
-834.9100952148438 -687.9508666992188 32.87680816650391
-834.52001953125 -690.8828125 33.12133026123047
-835.7756958007813 -689.2146606445313 33.94107818603516
-834.5646362304688 -690.5255737304688 33.08759307861328
-835.2652587890625 -690.21142578125 33.65901947021484
-833.716796875 -689.214111328125 32.01940155029297
-833.9542846679688 -689.4008178710938 32.27529144287109
-834.0247802734375 -689.3319091796875 32.32566833496094
-834.349853515625 -691.1728515625 33.00129318237305
-834.9208374023438 -687.9603271484375 32.874267578125
-834.5309448242188 -690.8818359375 33.10724258422852
-835.7969970703125 -689.2364501953125 33.94332885742188
-834.5756225585938 -690.5282592773438 33.07547760009766
-834.947021484375 -689.8844604492188 33.28014373779297
-835.3214111328125 -690.7190551757813 33.79345321655273
-833.7977294921875 -689.2489013671875 32.08700942993164
-833.8834838867188 -689.3985595703125 32.1955680847168
-835.5442504882813 -689.9716796875 33.8438720703125
-834.0347290039063 -689.3583984375 32.32546615600586
-835.9113159179688 -690.2100219726563 34.22816848754883
-834.3385620117188 -691.0150756835938 32.93753814697266
-834.43798828125 -690.9351806640625 33.01213073730469
-835.704833984375 -689.2785034179688 33.84846496582031
-834.5372924804688 -690.862060546875 33.08793640136719
-834.58251953125 -690.515869140625 33.05918121337891
-835.7686157226563 -688.7606811523438 33.80058670043945
-835.0051879882813 -690.0455322265625 33.34406661987305
-835.2115478515625 -689.9993286132813 33.52270126342773
-834.0404663085938 -689.34130859375 32.31070709228516
-834.1173095703125 -689.3292236328125 32.37818145751953
-835.6382446289063 -689.3646240234375 33.78350830078125
-834.4495239257813 -690.9378662109375 32.99942779541016
-834.546875 -690.8535766601563 33.07120895385742
-834.5909423828125 -690.5055541992188 33.04219818115234
-835.0170288085938 -690.051513671875 33.33380126953125
-835.5645751953125 -691.39453125 34.09636688232422
-835.2420654296875 -690.0579223632813 33.53937530517578
-834.1248779296875 -689.327392578125 32.36794662475586
-835.6456298828125 -689.3609008789063 33.76781845092773
-834.3936767578125 -689.9348754882813 32.72982788085938
-834.6018676757813 -690.5081176757813 33.03007888793945
-835.2183227539063 -691.1039428710938 33.69637680053711
-835.0267944335938 -690.0488891601563 33.31869125366211
-835.6534423828125 -691.6234741210938 34.19064712524414
-835.2777709960938 -690.1286010742188 33.56108856201172
-834.113037109375 -690.6314086914063 32.58848190307617
-836.0244140625 -690.0878295898438 34.22838973999023
-835.0103759765625 -687.9326782226563 32.89365386962891
-834.3961181640625 -689.8944702148438 32.70339202880859
-834.609375 -690.490478515625 33.00967788696289
-835.0350952148438 -690.0491943359375 33.30802536010742
-834.9542846679688 -689.4706420898438 33.12478256225586
-835.3001708984375 -690.1680908203125 33.56981658935547
-834.9003295898438 -688.3716430664063 32.86639404296875
-834.3263549804688 -689.9856567382813 32.64167022705078
-835.0128173828125 -687.9280395507813 32.88314819335938
-834.395751953125 -689.8516235351563 32.678955078125
-835.8086547851563 -688.773681640625 33.76224136352539
-833.3536987304688 -690.5631713867188 31.85272216796875
-835.0470581054688 -690.0518188476563 33.29464340209961
-834.9575805664063 -689.4506225585938 33.10194396972656
-835.3243408203125 -690.2031860351563 33.57203674316406
-835.5531616210938 -690.4896240234375 33.83106994628906
-834.9346313476563 -688.4337768554688 32.89141082763672
-835.681396484375 -689.8837890625 33.83308029174805
-834.3092041015625 -690.432861328125 32.68665313720703
-834.230224609375 -689.341064453125 32.41507339477539
-835.0238037109375 -687.9358520507813 32.87852478027344
-834.4065551757813 -689.8558349609375 32.6678581237793
-834.5232543945313 -689.9716186523438 32.79375839233398
-835.0570068359375 -690.0556640625 33.28486633300781
-834.9601440429688 -689.4352416992188 33.08420181274414
-835.5715942382813 -690.5121459960938 33.82955169677734
-833.9993896484375 -691.4410400390625 32.57306289672852
-834.150146484375 -690.7108154296875 32.57605743408203
-834.2455444335938 -689.3914794921875 32.42301177978516
-835.7762451171875 -689.092529296875 33.75217437744141
-834.5306396484375 -689.9679565429688 32.78207015991211
-835.0676879882813 -690.0579833984375 33.27284622192383
-834.9666748046875 -689.4287109375 33.06941604614258
-834.3496704101563 -689.9619750976563 32.59981536865234
-834.2911987304688 -689.1542358398438 32.40467071533203
-834.6318969726563 -690.4091796875 32.93041229248047
-835.8428955078125 -688.78857421875 33.73627090454102
-835.0789184570313 -690.06201171875 33.26160049438477
-835.1528930664063 -689.3689575195313 33.20516204833984
-834.2587280273438 -690.5923461914063 32.60906219482422
-835.7623291015625 -689.7282104492188 33.81059265136719
-834.3363037109375 -690.4241333007813 32.64878082275391
-835.7286376953125 -689.4161987304688 33.72555541992188
-834.2902221679688 -689.1094360351563 32.37975692749023
-834.6517944335938 -690.4557495117188 32.93437576293945
-836.0120239257813 -689.2471923828125 33.94786071777344
-835.855224609375 -688.7948608398438 33.72860336303711
-835.0877075195313 -690.0623168945313 33.25015258789063
-834.9713745117188 -689.39453125 33.03132247924805
-834.6940307617188 -688.3621826171875 32.60657501220703
-834.7501220703125 -688.1242065429688 32.61505508422852
-834.267333984375 -690.5904541015625 32.59761428833008
-835.6287231445313 -689.4390258789063 33.6219367980957
-835.7450561523438 -689.4320678710938 33.7238883972168
-834.4285278320313 -690.3207397460938 32.69437408447266
-834.65966796875 -690.4503784179688 32.92103576660156
-835.8617553710938 -688.7938232421875 33.71686553955078
-833.3929443359375 -690.697265625 31.82185935974121
-835.6243286132813 -690.5355224609375 33.78281784057617
-834.7547607421875 -688.1206665039063 32.60466766357422
-834.7820434570313 -688.0132446289063 32.61054611206055
-834.16796875 -690.525634765625 32.47793197631836
-835.635986328125 -689.4348754882813 33.60633850097656
-834.666748046875 -690.4359130859375 32.90299606323242
-833.4031982421875 -690.6795043945313 31.8080005645752
-834.99169921875 -689.4019165039063 33.01113510131836
-835.6471557617188 -690.5633544921875 33.78097534179688
-834.7632446289063 -688.12548828125 32.5982551574707
-835.8457641601563 -689.8372802734375 33.83536529541016
-834.2526245117188 -689.706787109375 32.39711761474609
-834.3531494140625 -689.7799072265625 32.49736022949219
-834.3507080078125 -689.3063354492188 32.41800308227539
-834.6763305664063 -690.4307861328125 32.88756561279297
-836.07373046875 -689.3031005859375 33.94751358032227
-834.4777221679688 -688.5418090820313 32.40310668945313
-835.6729125976563 -690.9560546875 33.8453254699707
-835.669921875 -690.5957641601563 33.78401947021484
-834.7733154296875 -688.13671875 32.59669494628906
-834.800537109375 -688.029052734375 32.60307693481445
-834.1351928710938 -690.0955810546875 32.34054183959961
-834.3092041015625 -690.0172119140625 32.4805908203125
-834.3727416992188 -689.8473510742188 32.50906753540039
-834.6844482421875 -690.4271240234375 32.87492752075195
-836.0885620117188 -689.3137817382813 33.94287872314453
-835.5564575195313 -691.3795776367188 33.78269958496094
-835.0078125 -689.400390625 32.98807144165039
-835.69873046875 -690.9910888671875 33.84534454345703
-835.6829223632813 -690.5982666015625 33.76907730102539
-834.8074951171875 -688.0304565429688 32.59500503540039
-834.2794799804688 -691.1981811523438 32.61881637573242
-834.3135986328125 -689.9850463867188 32.45916366577148
-834.3643798828125 -689.74951171875 32.46674346923828
-834.347412109375 -689.2144165039063 32.36833953857422
-835.86083984375 -689.1336059570313 33.69175338745117
-834.6923828125 -690.4144897460938 32.85694122314453
-835.7039184570313 -690.6240844726563 33.76763153076172
-834.3603515625 -689.6834716796875 32.43601226806641
-834.3695068359375 -689.2886352539063 32.38360595703125
-834.701416015625 -690.4127197265625 32.84426116943359
-835.9163208007813 -688.814697265625 33.67111206054688
-834.4550170898438 -688.6578979492188 32.36153030395508
-833.6401977539063 -691.0613403320313 31.99738311767578
-835.6295166015625 -690.7432250976563 33.69435119628906
-834.8004150390625 -688.3399047851563 32.60882949829102
-834.3117065429688 -690.4843139648438 32.49429321289063
-834.3675537109375 -689.6739501953125 32.42181015014648
-834.404296875 -689.4191284179688 32.41567611694336
-834.50390625 -689.4840087890625 32.5117301940918
-835.9207153320313 -688.8080444335938 33.6532096862793
-834.5155029296875 -688.5850219726563 32.38665008544922
-833.6483154296875 -691.0569458007813 31.98686981201172
-835.3040161132813 -690.1673583984375 33.30563354492188
-834.7987060546875 -688.3225708007813 32.59282684326172
-834.1420288085938 -690.6860961914063 32.36014556884766
-834.245361328125 -690.6889038085938 32.44996643066406
-835.0015869140625 -688.0791625976563 32.7322883605957
-834.375 -689.6771850585938 32.41405868530273
-835.9313354492188 -688.8138427734375 33.64722061157227
-833.6576538085938 -691.0567626953125 31.97562789916992
-834.5018920898438 -688.07666015625 32.28715896606445
-835.3167114257813 -690.1761474609375 33.29686737060547
-834.9103393554688 -688.3872680664063 32.68511581420898
-835.8665771484375 -690.3067016601563 33.79067993164063
-834.2576904296875 -690.7118530273438 32.44415283203125
-835.6079711914063 -689.4887084960938 33.44809722900391
-834.380615234375 -689.66552734375 32.40050888061523
-834.5775756835938 -690.187744140625 32.64494705200195
-833.6683959960938 -691.0685424804688 31.96487045288086
-835.6696166992188 -691.1295166015625 33.71239471435547
-835.8134765625 -691.1393432617188 33.83753204345703
-835.1980590820313 -689.2725219726563 33.0427131652832
-834.9237060546875 -688.4019775390625 32.68293380737305
-835.5154418945313 -689.5145263671875 33.35014724731445
-835.6163330078125 -689.48583984375 33.43286514282227
-834.3905029296875 -689.6710205078125 32.39093399047852
-834.59228515625 -690.210205078125 32.63935852050781
-834.731689453125 -690.375732421875 32.78211975097656
-835.3590698242188 -687.7951049804688 32.97121810913086
-833.676513671875 -690.9893188476563 31.94063758850098
-834.9367065429688 -688.4166259765625 32.6811637878418
-834.2941284179688 -690.8310546875 32.44835662841797
-834.6029052734375 -690.2156372070313 32.62900161743164
-836.303955078125 -689.551025390625 34.01069259643555
-834.4356079101563 -688.73974609375 32.28520965576172
-833.6866455078125 -691.0304565429688 31.93584442138672
-835.237548828125 -690.191162109375 33.16452407836914
-834.308349609375 -690.865478515625 32.44493103027344
-834.4613037109375 -690.4923095703125 32.52598571777344
-834.61328125 -690.222900390625 32.61987686157227
-835.3756103515625 -687.9378662109375 32.97729110717773
-833.6976318359375 -691.053955078125 31.92682266235352
-835.2476806640625 -690.1895141601563 33.14970779418945
-835.947265625 -691.0237426757813 33.8553581237793
-834.3201904296875 -690.8731079101563 32.43327331542969
-834.4729614257813 -690.499755859375 32.51499938964844
-835.0812377929688 -688.0182495117188 32.72175216674805
-834.3739624023438 -688.7310791015625 32.20257949829102
-836.1058349609375 -688.8226318359375 33.70027160644531
-833.7058715820313 -691.0396728515625 31.91415023803711
-835.2509765625 -690.1735229492188 33.13119506835938
-835.8522338867188 -690.7691040039063 33.71828079223633
-834.3312377929688 -690.88818359375 32.42563247680664
-835.66650390625 -689.51513671875 33.39909744262695
-834.4818115234375 -690.5012817382813 32.50449371337891
-835.0845947265625 -688.0146484375 32.71185684204102
-836.0923461914063 -688.7932739257813 33.66768264770508
-833.6058349609375 -690.660888671875 31.76399230957031
-835.2609252929688 -690.1751708984375 33.11935806274414
-835.7665405273438 -691.2337036132813 33.68009185791016
-834.2473754882813 -691.004150390625 32.34875106811523
-834.33837890625 -690.8705444335938 32.40928649902344
-834.5053100585938 -691.2365112304688 32.59525680541992
-835.0951538085938 -688.0235595703125 32.7088623046875
-835.9525756835938 -689.353759765625 33.60137939453125
-835.9584350585938 -688.9564208984375 33.55649185180664
-833.7254638671875 -691.060546875 31.89405822753906
-835.2684936523438 -690.1680908203125 33.10310745239258
-835.79052734375 -691.2652587890625 33.67741012573242
-834.2635498046875 -691.0523681640625 32.34660720825195
-835.5964965820313 -689.5734252929688 33.30704116821289
-834.2918701171875 -690.4713745117188 32.30109405517578
-834.1987915039063 -688.8311767578125 32.02693176269531
-834.4761962890625 -689.435546875 32.33259201049805
-834.4273681640625 -688.87548828125 32.22461700439453
-836.514892578125 -689.8029174804688 34.10952758789063
-834.7288818359375 -689.7363891601563 32.58119583129883
-835.2777709960938 -690.1661987304688 33.08905792236328
-834.8701782226563 -688.180908203125 32.51071929931641
-835.601806640625 -689.565185546875 33.28998565673828
-834.3056640625 -690.5018310546875 32.29639053344727
-834.13232421875 -688.8154296875 31.95530700683594
-834.198974609375 -688.7962036132813 32.00902557373047
-835.8605346679688 -689.3775634765625 33.48508453369141
-835.3655395507813 -688.0174560546875 32.90758895874023
-835.2845458984375 -690.1572875976563 33.07212066650391
-834.1566162109375 -688.9237670898438 31.97415161132813
-835.3795166015625 -687.890380859375 32.89003753662109
-835.2950439453125 -690.1588134765625 33.05951690673828
-835.4880981445313 -689.7794189453125 33.17816543579102
-833.9764404296875 -689.1536254882813 31.83497428894043
-834.3021850585938 -690.3504638671875 32.23728942871094
-834.477294921875 -690.8065185546875 32.43304061889648
-835.8532104492188 -689.55517578125 33.45774459838867
-835.3902587890625 -687.8971557617188 32.88565063476563
-835.3054809570313 -690.1620483398438 33.0483512878418
-834.6395263671875 -688.1024780273438 32.27013397216797
-835.8970336914063 -691.0498046875 33.63711166381836
-834.0540771484375 -689.1303100585938 31.88355445861816
-836.2136840820313 -689.7173461914063 33.75543975830078
-836.4517211914063 -689.8739013671875 33.97051620483398
-834.5387573242188 -688.6347045898438 32.23348236083984
-835.312744140625 -690.1563720703125 33.03361129760742
-834.0713500976563 -689.2127685546875 31.89282417297363
-835.8886108398438 -689.5880737304688 33.45100402832031
-836.2376098632813 -689.74169921875 33.75665283203125
-834.4081420898438 -688.97314453125 32.14701843261719
-835.322509765625 -690.1560668945313 33.02025985717773
-834.7060546875 -688.2468872070313 32.31534576416016
-835.0517578125 -688.5126342773438 32.62826156616211
-834.0636596679688 -689.1032104492188 31.86088943481445
-836.2550048828125 -689.75390625 33.74963760375977
-836.3790283203125 -689.7256469726563 33.84919738769531
-834.8036499023438 -690.2068481445313 32.58141708374023
-836.0361938476563 -688.9852294921875 33.4901237487793
-834.0706176757813 -689.1080322265625 31.85371208190918
-835.8611450195313 -689.9888305664063 33.42723083496094
-834.148193359375 -689.1280517578125 31.91945266723633
-835.9744873046875 -689.4840698242188 33.47045135498047
-835.3599243164063 -688.094970703125 32.82642364501953
-834.814208984375 -690.2136840820313 32.57192993164063
-833.7974243164063 -690.9608154296875 31.78661155700684
-835.5928955078125 -689.6553955078125 33.1515998840332
-835.8613891601563 -689.96728515625 33.40180587768555
-834.3775024414063 -690.5479736328125 32.22408294677734
