46.12446975708008 -552.1016235351563 49.82179260253906
45.24271011352539 -553.2415771484375 49.51031112670898
44.11135101318359 -550.360107421875 47.94660949707031
46.3198127746582 -552.56396484375 50.26286697387695
44.50355529785156 -553.701904296875 50.00921630859375
46.12463760375977 -553.35302734375 50.4730339050293
46.61861801147461 -549.9998779296875 49.74724197387695
46.97621154785156 -550.5980834960938 49.85697555541992
46.78765106201172 -551.149658203125 49.95171356201172
46.05547332763672 -552.2011108398438 49.75160217285156
45.18434906005859 -553.3251342773438 49.44740676879883
47.4759521484375 -552.6045532226563 51.41095352172852
46.00035095214844 -551.9705200195313 49.51457977294922
45.45221710205078 -550.8572998046875 49.26541519165039
46.93915557861328 -551.3980712890625 50.16897583007813
48.06941986083984 -551.451904296875 51.34323120117188
46.05828857421875 -553.4746704101563 50.35574722290039
47.50006484985352 -552.6259765625 51.37625503540039
45.98017501831055 -551.3612670898438 49.12324905395508
46.0013313293457 -552.0050659179688 49.47987747192383
46.94223785400391 -551.4332885742188 50.13143539428711
47.66880035400391 -550.0079345703125 50.57000732421875
47.87588882446289 -551.2933349609375 51.00025177001953
48.07048797607422 -551.4905395507813 51.29895782470703
46.04705810546875 -553.5158081054688 50.31169891357422
44.88220596313477 -551.5750122070313 49.17409515380859
47.46091842651367 -552.6928100585938 51.30926895141602
47.89568328857422 -552.69580078125 51.74899673461914
46.31850433349609 -551.04541015625 49.24160385131836
46.05480575561523 -551.9901733398438 49.46901702880859
47.03221130371094 -551.1078491210938 50.63349151611328
46.42227554321289 -551.9654541015625 49.82461547851563
45.09117126464844 -553.7881469726563 49.43818664550781
48.04422378540039 -551.9158325195313 51.42448425292969
46.31644058227539 -551.08544921875 49.20554733276367
46.23520278930664 -551.849365234375 49.52221298217773
45.13452911376953 -553.2147827148438 49.13515472412109
45.47446441650391 -553.1908569335938 49.46157836914063
46.43633651733398 -553.5693359375 50.61673736572266
47.90538787841797 -552.7627563476563 51.6613883972168
46.12371826171875 -551.3237915039063 49.08391952514648
45.92756652832031 -551.8599853515625 49.16850280761719
45.13520050048828 -552.9545288085938 48.95236206054688
45.32696151733398 -553.0651245117188 49.19999313354492
45.51597595214844 -553.1846923828125 49.44955062866211
45.20079803466797 -553.7514038085938 49.43177032470703
44.88449859619141 -552.1954956054688 49.49565505981445
46.25261688232422 -553.1414794921875 50.1570930480957
44.63463592529297 -549.1204223632813 47.68218994140625
46.46087646484375 -553.5819702148438 50.59222793579102
47.03379058837891 -551.6283569335938 50.90295028686523
46.44000625610352 -553.8987426757813 50.73599243164063
45.94396209716797 -551.878662109375 49.14222717285156
45.14960098266602 -552.9720458984375 48.92784881591797
47.9998893737793 -550.5968017578125 50.50239944458008
47.06722640991211 -551.8160400390625 50.21702194213867
46.30762481689453 -553.1278076171875 50.15013122558594
46.48103713989258 -553.5980224609375 50.56515502929688
46.00053024291992 -554.2582397460938 50.4345817565918
44.46014022827148 -553.1205444335938 48.27590179443359
45.968505859375 -551.8934936523438 49.11550140380859
45.17877578735352 -552.9791870117188 48.90651321411133
48.19377517700195 -550.4620971679688 50.55102920532227
45.14727020263672 -553.5825805664063 49.18939208984375
46.3127326965332 -552.8505859375 49.95024871826172
46.77492904663086 -552.7740478515625 50.36302185058594
46.63259506225586 -553.2070922851563 50.44856262207031
45.355712890625 -549.0564575195313 48.21721649169922
48.25809478759766 -552.2579956054688 51.54690170288086
43.97015380859375 -550.2726440429688 47.75392150878906
46.04258346557617 -554.260009765625 50.41763305664063
45.25103759765625 -549.8486938476563 48.54377746582031
44.50838851928711 -553.7146606445313 49.98104095458984
44.56877517700195 -554.1034545898438 50.22914123535156
46.00222778320313 -551.894775390625 49.09716796875
48.10208129882813 -550.5883178710938 50.46328735351563
46.60490798950195 -552.3074951171875 49.89877319335938
46.2591552734375 -552.9298706054688 49.88544845581055
46.7515869140625 -552.8272705078125 50.31157684326172
46.43390274047852 -553.3988647460938 50.29912948608398
46.62500762939453 -553.8577270507813 50.72324371337891
46.75445556640625 -554.0652465820313 50.95685958862305
46.0414924621582 -551.8949584960938 49.07702255249023
47.85849761962891 -550.4811401367188 50.10069274902344
48.52213668823242 -550.2459716796875 50.6207160949707
46.35425186157227 -552.56982421875 49.73052215576172
46.28138732910156 -552.9474487304688 49.85619735717773
46.61665344238281 -550.0252685546875 49.70994186401367
48.05240249633789 -552.1437377929688 51.15191650390625
47.54074096679688 -550.0957641601563 50.46061325073242
48.58821868896484 -552.4443969726563 51.82608032226563
44.90885925292969 -551.5814208984375 49.15814971923828
46.7596549987793 -551.2183837890625 49.36825180053711
46.94210433959961 -551.6826782226563 50.80794525146484
46.15567016601563 -552.200927734375 50.45700836181641
45.24286651611328 -549.162841796875 48.14151382446289
45.37600326538086 -552.8861083984375 48.90309524536133
48.50751113891602 -550.298583984375 50.57288360595703
46.33717346191406 -552.6163940429688 49.68813705444336
46.43060302734375 -552.8501586914063 49.89946365356445
46.60135650634766 -553.0202026367188 50.15206909179688
48.04957962036133 -552.1803588867188 51.10942077636719
46.27680587768555 -554.17724609375 50.44022750854492
46.26383590698242 -551.74755859375 49.10673141479492
45.38879013061523 -552.9092407226563 48.87343215942383
46.70387268066406 -552.654052734375 49.99858093261719
46.55549621582031 -553.0946655273438 50.08543395996094
47.07001113891602 -553.63037109375 50.85511016845703
46.1362190246582 -548.7811279296875 48.64361572265625
46.27883148193359 -551.7700805664063 49.07702255249023
46.15211486816406 -552.6759643554688 50.698974609375
46.34701538085938 -552.0360717773438 49.28009796142578
43.55078125 -553.5805053710938 49.12103652954102
46.48966217041016 -552.2312622070313 49.51714324951172
44.51799774169922 -553.7264404296875 49.95620346069336
46.66422653198242 -552.4008178710938 49.77114105224609
45.49860000610352 -553.7482299804688 50.73793029785156
46.70964431762695 -552.6847534179688 49.96173858642578
44.24261093139648 -551.122802734375 48.37026596069336
47.46473693847656 -549.595703125 50.10318374633789
46.90053939819336 -552.8466796875 50.22716522216797
47.51299285888672 -550.1329345703125 50.40806579589844
46.31747817993164 -553.92041015625 50.23023986816406
47.07315063476563 -553.6618041992188 50.8139533996582
46.47782897949219 -551.2617797851563 48.95541381835938
46.29758834838867 -551.7822265625 49.05540084838867
44.48895263671875 -553.8177490234375 48.40185928344727
46.48928833007813 -552.2613525390625 49.4857292175293
46.98699188232422 -552.4791870117188 50.06953048706055
47.16696929931641 -553.30517578125 50.6682014465332
47.01408386230469 -553.7322387695313 50.7451057434082
46.52976226806641 -551.2501831054688 48.93856430053711
46.35758972167969 -551.762939453125 49.04319763183594
44.92145919799805 -551.5932006835938 49.13625717163086
44.50308609008789 -553.8356323242188 48.37659454345703
45.65364074707031 -551.9363403320313 49.88493347167969
46.50018692016602 -552.2896118164063 49.45084762573242
46.86177062988281 -551.731201171875 50.72288513183594
46.611572265625 -552.5144653320313 49.67224884033203
46.27909088134766 -552.1781005859375 50.49799728393555
46.9517936706543 -552.5471801757813 50.00891494750977
44.57359313964844 -549.8919067382813 47.95808792114258
46.42796325683594 -553.2965087890625 49.90557098388672
44.6369514465332 -553.1171264648438 49.69913101196289
46.54135513305664 -554.4016723632813 50.58506393432617
45.46041488647461 -553.3262329101563 50.45001602172852
44.66217422485352 -553.7099609375 50.02423095703125
46.01358795166016 -551.803955078125 48.69071960449219
44.52310943603516 -553.8444213867188 48.35751342773438
47.45158004760742 -549.6273193359375 50.05974960327148
47.51540756225586 -551.4068603515625 49.88832092285156
47.44019317626953 -551.8262329101563 50.03574752807617
48.56024551391602 -551.230712890625 50.77316284179688
46.52311325073242 -554.4432373046875 50.5362663269043
46.02879333496094 -551.8248901367188 48.66254425048828
47.46650695800781 -551.4900512695313 49.82443618774414
46.55859756469727 -552.9451904296875 49.73639297485352
46.492919921875 -553.30859375 49.86389923095703
46.47896957397461 -553.6226806640625 50.01379776000977
47.97290420532227 -552.80712890625 50.97778701782227
46.60207366943359 -554.126220703125 50.38905715942383
44.70133972167969 -554.313720703125 50.36594772338867
46.06021881103516 -551.82958984375 48.6409912109375
44.78896713256836 -554.5119018554688 50.53652954101563
45.60168075561523 -552.597412109375 48.6163330078125
47.51784896850586 -550.1527709960938 50.37544250488281
45.58064270019531 -552.9210815429688 48.76499176025391
44.95748519897461 -551.5932006835938 49.12887954711914
45.76615142822266 -553.0516967773438 49.00409698486328
45.73268508911133 -551.4690551757813 49.66704559326172
46.48114776611328 -552.7306518554688 49.49753189086914
47.10379409790039 -551.6641235351563 50.83246231079102
47.69762802124023 -552.0308837890625 50.25734329223633
46.4810791015625 -553.3511962890625 49.8193359375
46.66335296630859 -552.06884765625 50.6988639831543
47.96556091308594 -552.8489379882813 50.92868423461914
47.38257217407227 -553.6010131835938 50.78054809570313
45.47610473632813 -552.7471923828125 48.53426361083984
45.776123046875 -553.071533203125 48.97821044921875
46.43402481079102 -552.8014526367188 49.44218063354492
46.50539016723633 -553.3607177734375 49.7977294921875
46.61133193969727 -553.58154296875 50.00941467285156
46.7690544128418 -554.0663452148438 50.40534591674805
44.6016845703125 -549.891357421875 47.94589614868164
45.48669815063477 -552.7698364257813 48.50617980957031
44.04747009277344 -550.8770141601563 48.02581024169922
44.69807434082031 -554.0623779296875 48.45716094970703
44.66178512573242 -553.7222900390625 49.99596786499023
46.43370056152344 -552.8357543945313 49.40480804443359
44.50294494628906 -550.806640625 48.34170150756836
45.71049118041992 -553.7435302734375 49.21567916870117
45.57558441162109 -553.7619018554688 50.72613525390625
44.58115005493164 -553.3886108398438 47.95626831054688
44.8618049621582 -554.0957641601563 50.34374237060547
47.33062744140625 -551.4083862304688 49.42337036132813
44.7325439453125 -554.5284423828125 50.46633911132813
44.69648361206055 -554.0922241210938 48.4261589050293
47.49872207641602 -550.1884155273438 50.32330322265625
46.41165542602539 -552.8883666992188 49.35750961303711
46.47543334960938 -553.1447143554688 49.54826736450195
48.15543365478516 -552.8132934570313 50.89973068237305
47.36348724365234 -551.4165649414063 49.39807891845703
46.38386154174805 -552.6321411132813 49.14537811279297
46.05290603637695 -553.2269897460938 49.15548706054688
46.06382369995117 -553.5150146484375 49.31467056274414
46.93292617797852 -555.22216796875 50.98151397705078
46.62801361083984 -551.7900390625 48.87356567382813
46.64562225341797 -552.1084594726563 49.0545539855957
45.74225616455078 -551.486083984375 49.63668441772461
46.38875961303711 -552.6617431640625 49.11135864257813
44.99565124511719 -552.01318359375 49.33222198486328
45.84933471679688 -553.4315185546875 49.02713775634766
45.6495361328125 -551.9744262695313 49.81672668457031
44.82194519042969 -553.5221557617188 48.11099624633789
43.48327255249023 -552.9590454101563 48.65266799926758
44.77885055541992 -553.8357543945313 48.23529052734375
46.61881637573242 -552.1045532226563 50.63149642944336
46.41070175170898 -552.67431640625 49.08701324462891
44.62167358398438 -549.9003295898438 47.92547988891602
44.78840255737305 -554.3563232421875 48.51373672485352
44.66337966918945 -553.1390380859375 49.65576553344727
46.60500335693359 -553.1358032226563 49.49930953979492
47.54712295532227 -553.0348510742188 50.2860221862793
45.54958343505859 -552.5652465820313 48.21425628662109
44.83164978027344 -553.54248046875 48.08530807495117
44.79401779174805 -553.8507080078125 48.21184921264648
48.00578308105469 -551.3170166015625 49.74239730834961
44.85562515258789 -554.3273315429688 48.51350021362305
48.80770874023438 -551.384521484375 50.48737716674805
46.56478118896484 -552.8604736328125 50.9791145324707
49.18032455444336 -551.8440551757813 51.05519104003906
44.43411636352539 -550.4542846679688 48.06719589233398
47.35344696044922 -551.5700073242188 49.24452590942383
45.45397567749023 -553.3582763671875 50.37859344482422
44.82328796386719 -554.1168823242188 48.33636474609375
44.06793212890625 -550.8844604492188 48.00778961181641
44.88153457641602 -554.3298950195313 48.49806976318359
44.55258941650391 -553.7588500976563 49.88954162597656
48.81396102905273 -551.41455078125 50.45016479492188
44.52762222290039 -550.8129272460938 48.32399368286133
47.19466400146484 -553.044921875 49.86899185180664
44.92010879516602 -554.1012573242188 50.34944534301758
47.3287467956543 -551.6293334960938 49.19572448730469
45.59716796875 -550.65673828125 49.06486129760742
46.58390808105469 -552.6206665039063 49.05755615234375
46.4943962097168 -553.0115356445313 49.18173980712891
47.20612716674805 -553.0697021484375 49.83465194702148
49.26121520996094 -551.8575439453125 51.00503540039063
47.02856063842773 -555.0152587890625 50.68589782714844
44.87576293945313 -553.30517578125 47.87238693237305
47.15412521362305 -551.4744873046875 48.90591430664063
45.80984878540039 -554.2013549804688 51.08744049072266
48.78193283081055 -550.366943359375 49.74821853637695
47.28975296020508 -550.3141479492188 50.17251205444336
46.49847412109375 -553.040771484375 49.14725875854492
45.68019485473633 -551.9828491210938 49.79863357543945
47.0992546081543 -555.001708984375 50.68413925170898
45.96898651123047 -552.1056518554688 50.08317947387695
46.2100830078125 -552.3828125 48.50397109985352
44.72586441040039 -549.3971557617188 47.70494079589844
48.91153717041016 -550.2931518554688 49.7570686340332
44.63534927368164 -549.9136352539063 47.90244293212891
44.67871856689453 -553.1507568359375 49.63272476196289
46.67941284179688 -552.605712890625 49.02535629272461
47.86392593383789 -553.297119140625 50.40702056884766
47.0986442565918 -554.738525390625 50.49131774902344
46.61648941040039 -552.3673095703125 48.8004150390625
46.45793914794922 -552.8248291015625 48.90111923217773
47.78231048583984 -553.0573120117188 50.1599235534668
47.88069915771484 -553.31494140625 50.37773513793945
47.67609024047852 -554.405029296875 50.76554870605469
44.60150146484375 -553.9215698242188 47.82777786254883
46.63065719604492 -552.3906860351563 48.76841735839844
44.44258880615234 -550.4701538085938 48.04247283935547
46.48179244995117 -552.8390502929688 48.87352752685547
45.46772766113281 -553.371826171875 50.35114288330078
47.79865264892578 -553.408203125 50.29257965087891
44.58578491210938 -553.7667236328125 49.87873077392578
46.66216278076172 -552.3945922851563 48.74744415283203
47.69135665893555 -553.1914672851563 50.03379058837891
46.48290252685547 -552.5855712890625 48.64218902587891
47.50960922241211 -549.1102905273438 49.68115615844727
46.06841659545898 -554.4038696289063 49.23347473144531
47.55815124511719 -553.6400756835938 50.09513854980469
47.14664459228516 -554.5277099609375 50.20687484741211
46.49654388427734 -552.6044921875 48.61482238769531
47.62262344360352 -552.3135986328125 49.40914154052734
47.61185455322266 -553.6329345703125 50.08248519897461
47.14879989624023 -554.5541381835938 50.17031860351563
45.52678298950195 -550.7162475585938 48.99641799926758
46.54784774780273 -552.2711181640625 48.43040084838867
46.91069793701172 -550.5150146484375 49.94205856323242
46.26950454711914 -553.4454345703125 48.80630111694336
46.49538421630859 -552.3497314453125 48.37911605834961
48.02310562133789 -553.413330078125 50.1950569152832
47.42568206787109 -554.1333618164063 50.07236099243164
48.18042373657227 -554.2800903320313 50.77305603027344
46.32633590698242 -551.035400390625 49.76480865478516
46.08130264282227 -552.4376831054688 48.03531646728516
46.50726699829102 -552.3701171875 48.35141754150391
46.09105682373047 -554.4966430664063 49.10867691040039
48.05293273925781 -553.4237670898438 50.16949081420898
47.25141143798828 -554.2767944335938 49.95035552978516
48.24208068847656 -554.2722778320313 50.76342010498047
45.03244781494141 -553.154541015625 47.49860763549805
45.69150161743164 -551.7709350585938 49.65991973876953
46.43666839599609 -552.1406860351563 48.12388229370117
46.20322036743164 -552.6746215820313 48.20916748046875
46.18206405639648 -553.0032348632813 48.36193466186523
46.15286636352539 -554.7557983398438 49.24423217773438
47.72546768188477 -554.3068237304688 50.29878616333008
46.43334197998047 -551.7188110351563 50.19833374023438
46.47694778442383 -552.1326293945313 48.10817718505859
45.97048568725586 -552.1217651367188 50.05314636230469
46.22823333740234 -552.9908447265625 48.34984588623047
47.525146484375 -552.2208251953125 49.00750732421875
48.06986236572266 -552.123291015625 49.40053558349609
48.2961540222168 -553.319580078125 50.20293426513672
46.99466323852539 -551.3407592773438 48.06381607055664
45.03551483154297 -553.4933471679688 47.59291458129883
46.77052688598633 -552.2325439453125 48.34418106079102
47.5175895690918 -552.263427734375 48.96451187133789
47.76566314697266 -552.40234375 49.23695373535156
48.47925567626953 -553.2304077148438 50.24174880981445
47.05377578735352 -554.7839965820313 49.89191055297852
46.87882995605469 -555.1759643554688 49.95286178588867
46.42734146118164 -551.9127807617188 47.85400390625
44.44328308105469 -554.3214721679688 47.50482559204102
44.72457885742188 -549.4179077148438 47.6807975769043
46.24361038208008 -552.500732421875 50.45641326904297
44.64928436279297 -549.9228515625 47.88428115844727
47.40380096435547 -552.0501708984375 48.71062088012695
47.80362701416016 -552.0604858398438 49.03744888305664
48.39499282836914 -551.9364013671875 49.4487190246582
48.10625839233398 -553.513916015625 50.03171539306641
47.86475372314453 -553.994384765625 50.08575057983398
47.07495880126953 -554.7974243164063 49.86581420898438
48.84973907470703 -554.031982421875 50.8963737487793
46.07445907592773 -552.5969848632813 47.87930679321289
44.44750213623047 -554.3417358398438 47.48125457763672
47.81870651245117 -552.0809326171875 49.00682067871094
47.80121994018555 -553.105224609375 49.52224731445313
47.34933471679688 -554.0537109375 49.65110778808594
47.89837265014648 -554.0017700195313 50.06277084350586
44.68951034545898 -553.1610717773438 49.61228942871094
44.74369812011719 -553.3461303710938 49.74887847900391
44.45459747314453 -550.4801635742188 48.02405166625977
44.10931015014648 -550.8956909179688 47.97636413574219
44.54835510253906 -550.8386840820313 48.28002166748047
46.18496704101563 -552.5294189453125 47.88164901733398
48.19467544555664 -551.0792846679688 48.72763061523438
46.49618530273438 -553.1961669921875 48.47367477416992
48.0359992980957 -552.2899169921875 49.22764205932617
48.33876800537109 -552.40380859375 49.52680206298828
47.8463249206543 -553.10693359375 49.49921035766602
47.52746963500977 -553.6548461914063 49.52916717529297
47.48876953125 -553.9920043945313 49.67251586914063
47.82340240478516 -554.0825805664063 49.98473358154297
48.78284454345703 -554.1356201171875 50.7730827331543
46.07759094238281 -552.3385620117188 47.65287017822266
46.44111251831055 -552.9623413085938 48.26262664794922
47.47478485107422 -549.4362182617188 49.77688217163086
45.24308776855469 -554.2431030273438 47.97920608520508
44.2643928527832 -551.5889892578125 48.4513053894043
46.92940521240234 -550.5294799804688 49.91459274291992
46.31753921508789 -551.0607299804688 49.72495269775391
43.76930618286133 -552.373779296875 48.47187423706055
46.35931396484375 -551.5260009765625 49.99619674682617
48.60135269165039 -551.8798828125 49.40798187255859
46.6620979309082 -553.6989135742188 48.81771469116211
47.80569458007813 -553.1669311523438 49.44509506225586
45.84438705444336 -554.8546142578125 48.76951599121094
47.83790969848633 -554.7188720703125 50.27143096923828
46.09177017211914 -552.3567504882813 47.62613296508789
46.14183044433594 -552.6290893554688 47.80634689331055
47.73818206787109 -551.9031372070313 48.68326568603516
48.16941070556641 -551.900390625 49.02005004882813
48.77149200439453 -551.783203125 49.43159866333008
46.68017196655273 -553.7149047851563 48.78986358642578
46.42432403564453 -554.1953125 48.83740997314453
46.86306762695313 -554.1749877929688 49.17079162597656
47.2859001159668 -551.42333984375 50.64484024047852
48.33229446411133 -553.8173217773438 50.13753128051758
45.99061584472656 -552.1336059570313 50.0299072265625
48.50222396850586 -554.036865234375 50.38391876220703
46.20290374755859 -552.5311889648438 50.39534378051758
44.66030883789063 -549.9365844726563 47.86176681518555
46.45641708374023 -552.6981811523438 50.67323303222656
45.0495719909668 -553.2857055664063 49.91068267822266
47.78017425537109 -554.7816772460938 50.20237731933594
47.81735992431641 -555.0618896484375 50.37601089477539
46.11441421508789 -552.366943359375 47.60192108154297
49.36903762817383 -549.753662109375 48.78776168823242
47.62797927856445 -552.0299682617188 48.60763931274414
48.23993301391602 -551.878662109375 49.00634765625
46.86013412475586 -553.60986328125 48.82565689086914
46.43095779418945 -554.2186889648438 48.80571365356445
47.47064208984375 -553.7845458984375 49.39134216308594
47.99482345581055 -553.7453002929688 49.77925872802734
47.38150405883789 -554.4521484375 49.66638565063477
47.7971076965332 -554.8006591796875 50.16966247558594
47.82309341430664 -555.0870361328125 50.33753967285156
45.30411148071289 -553.4423217773438 47.48333358764648
45.01066207885742 -554.5087890625 47.80735015869141
44.46834945678711 -550.491455078125 48.00323867797852
48.82050323486328 -551.8175048828125 49.36671829223633
45.48584747314453 -553.397216796875 50.29838180541992
47.37447738647461 -553.2568359375 48.99065399169922
44.12717437744141 -550.903564453125 47.95855712890625
44.26790618896484 -551.6046752929688 48.42592239379883
45.57564926147461 -551.1875 49.18608856201172
46.27721405029297 -551.0999145507813 49.66878128051758
43.7783088684082 -552.3851928710938 48.4508171081543
47.63794708251953 -553.383056640625 49.25973129272461
46.05827713012695 -554.785400390625 48.76107025146484
47.99016189575195 -553.7794799804688 49.73683929443359
47.32637405395508 -554.5158081054688 49.60311508178711
48.65995788574219 -554.00390625 50.37077331542969
47.69518280029297 -551.3320922851563 48.18979263305664
44.80285263061523 -554.1851196289063 47.43862533569336
48.90791702270508 -551.7861328125 49.35759735107422
47.31532669067383 -553.331787109375 48.93073654174805
46.85406112670898 -553.972900390625 48.90695571899414
47.52751922607422 -554.417724609375 49.65421295166016
48.65127563476563 -554.04052734375 50.32349014282227
48.80287551879883 -554.279052734375 50.56298065185547
47.77113342285156 -555.1717529296875 50.23014068603516
47.41543960571289 -551.6105346679688 48.07476806640625
48.21757507324219 -551.2705078125 48.5131721496582
46.13527679443359 -552.1026611328125 50.07832717895508
45.26846313476563 -554.0804443359375 47.70774459838867
47.71451950073242 -552.1058959960938 51.26789474487305
47.75009536743164 -552.3683471679688 48.72261047363281
44.65867233276367 -549.9589233398438 47.83422470092773
47.5606689453125 -552.419921875 51.3138313293457
44.89030075073242 -550.0264892578125 48.0425910949707
44.45969390869141 -550.5166625976563 47.97284698486328
47.72599029541016 -552.723876953125 48.88775634765625
44.67974090576172 -553.5889892578125 49.74863815307617
47.41037368774414 -554.215087890625 49.41587829589844
47.19560241699219 -551.491455078125 47.79005432128906
46.502197265625 -552.4578857421875 47.76234436035156
49.18463134765625 -550.4803466796875 48.78013229370117
46.83437347412109 -553.7435302734375 48.67893981933594
47.77849960327148 -553.6920776367188 49.36969375610352
46.34114456176758 -552.3095703125 47.51571273803711
47.29248046875 -551.78955078125 47.96586227416992
46.8319206237793 -553.7744140625 48.64312362670898
46.87383651733398 -554.0416870117188 48.81267929077148
48.29738235473633 -553.6991577148438 49.71048736572266
47.81566619873047 -554.6270751953125 49.82527542114258
46.56916046142578 -552.1302490234375 47.54986190795898
44.14498138427734 -550.9114990234375 47.94069290161133
49.05376434326172 -550.2671508789063 48.45323181152344
44.51039505004883 -551.1021118164063 48.31258392333984
46.53295135498047 -552.8106079101563 47.87431716918945
45.4584846496582 -551.0354614257813 48.98809814453125
45.5844612121582 -551.2009887695313 49.16234970092773
45.95521926879883 -551.2607421875 49.47045516967773
45.34677505493164 -554.0949096679688 47.64704513549805
43.79719924926758 -552.3906860351563 48.43810272216797
47.61616897583008 -552.572998046875 48.56489944458008
47.53145599365234 -551.3746337890625 50.70806884765625
46.28017807006836 -554.4852905273438 48.54907608032227
46.12336730957031 -552.1234741210938 50.04040145874023
48.52715301513672 -553.5798950195313 49.76791763305664
46.49460601806641 -552.231689453125 47.49570465087891
45.16695785522461 -554.2694091796875 47.55821990966797
46.17668533325195 -552.3392333984375 50.19136810302734
46.17821884155273 -554.0255126953125 48.186279296875
48.11709213256836 -552.89697265625 49.04912567138672
46.79452896118164 -554.4435424804688 48.86117553710938
48.29505157470703 -554.7147827148438 50.11870956420898
48.55501937866211 -550.3870849609375 48.02897262573242
46.54011535644531 -552.8631591796875 47.81377029418945
45.19252777099609 -554.2710571289063 47.54156875610352
44.66609954833984 -549.972412109375 47.81351470947266
46.86985778808594 -553.528076171875 48.40147399902344
48.34847640991211 -552.2276000976563 51.75825119018555
46.80712890625 -553.8753051757813 48.53413391113281
44.25241470336914 -550.4591674804688 47.75642013549805
49.40613174438477 -550.0702514648438 48.43899536132813
45.01909637451172 -553.3215942382813 49.83124160766602
47.35604858398438 -552.8685913085938 48.37299346923828
44.45230102539063 -550.5386352539063 47.94626617431641
47.82527923583984 -552.8375244140625 48.70265197753906
44.68860626220703 -553.5994262695313 49.72707748413086
46.79497909545898 -554.4930419921875 48.79755783081055
48.3865852355957 -553.76025390625 49.59175872802734
45.3429069519043 -553.9254150390625 47.39323806762695
46.90908813476563 -553.5551147460938 48.34867095947266
47.35867309570313 -553.5333251953125 48.66641998291016
46.65900039672852 -554.89013671875 48.85393524169922
47.92181396484375 -554.7019653320313 49.68058776855469
47.65995025634766 -552.0147094726563 48.05081176757813
46.74913024902344 -554.5774536132813 48.71033096313477
46.81784820556641 -554.8156127929688 48.88297271728516
46.53281021118164 -552.3462524414063 47.35478973388672
46.43542098999023 -553.0674438476563 47.65681076049805
46.76719284057617 -554.59228515625 48.68281173706055
46.22811889648438 -549.6884765625 48.83042144775391
46.1504020690918 -553.029541015625 47.38610076904297
46.46223449707031 -549.80615234375 49.06540679931641
45.61766052246094 -553.7752075195313 47.38845825195313
45.55399322509766 -550.5526733398438 48.77383422851563
47.38494110107422 -553.289306640625 48.40637588500977
46.07095336914063 -553.1246337890625 47.3361930847168
45.62937927246094 -553.7904663085938 47.36469268798828
45.47032165527344 -551.04736328125 48.96636581420898
46.90571975708008 -552.7628784179688 47.69977569580078
45.2711067199707 -554.6419677734375 47.510009765625
48.79237747192383 -554.015869140625 49.68248748779297
47.95835876464844 -551.2024536132813 47.58812713623047
45.63584136962891 -553.55029296875 47.16320419311523
46.48290634155273 -553.4451293945313 47.70574188232422
47.27359008789063 -553.1412353515625 48.10593032836914
46.57339096069336 -553.9691772460938 48.03963088989258
45.5341911315918 -551.2442626953125 49.10511779785156
49.3818244934082 -552.2813110351563 49.14713668823242
43.8193473815918 -552.3966674804688 48.42403030395508
46.55744171142578 -552.7919311523438 47.37768173217773
46.08843231201172 -552.1541748046875 49.98546600341797
47.19053268432617 -552.9134521484375 47.88359832763672
47.28312301635742 -553.1619262695313 48.07650375366211
46.15517807006836 -552.3645629882813 50.14334106445313
44.6689567565918 -549.9915161132813 47.78789520263672
48.34961318969727 -552.2490844726563 51.7146110534668
49.40273284912109 -552.2987060546875 49.11483383178711
46.13384628295898 -553.1815795898438 47.23528671264648
46.98645401000977 -552.7862548828125 47.62416458129883
47.17459487915039 -552.9575805664063 47.84328460693359
48.85714340209961 -552.7158813476563 48.88789367675781
46.59892272949219 -552.8151245117188 47.32615661621094
46.33136367797852 -553.0215454101563 50.61243438720703
47.18070220947266 -552.9806518554688 47.81344985961914
46.34237289428711 -553.2576293945313 50.74212265014648
46.54642486572266 -553.77587890625 47.78524017333984
44.20292282104492 -550.911865234375 47.91758346557617
46.6893196105957 -553.9647216796875 47.98120880126953
45.47092056274414 -551.0670776367188 48.93549728393555
48.78182601928711 -552.7987670898438 48.82534790039063
45.82488250732422 -551.3594360351563 49.33477401733398
43.83895111083984 -552.4046020507813 48.40703964233398
49.54949569702148 -552.6295166015625 49.26810455322266
46.6162109375 -552.8278198242188 47.30129241943359
46.92972946166992 -552.887939453125 47.54753875732422
48.67428207397461 -552.2036743164063 48.39228439331055
48.42845153808594 -553.0740356445313 48.67193222045898
47.05869293212891 -552.8112182617188 47.5513916015625
45.5897216796875 -554.2734985351563 47.3030891418457
48.33197784423828 -552.49072265625 48.25468444824219
46.94917297363281 -551.3779296875 50.17410278320313
46.0893669128418 -552.1737060546875 49.94913482666016
47.88735198974609 -553.153564453125 48.29292297363281
46.11341857910156 -552.9971923828125 46.96138000488281
43.49438095092773 -553.3820190429688 48.65578842163086
44.67417526245117 -550.0101318359375 47.76169967651367
48.61592102050781 -552.2020263671875 51.828369140625
47.7849006652832 -552.5950927734375 47.88728713989258
46.10970687866211 -553.028076171875 46.93148422241211
48.31232452392578 -551.8621215820313 47.81375503540039
48.37000274658203 -552.52392578125 48.19356536865234
48.53822326660156 -552.74658203125 48.42144393920898
48.84115600585938 -552.879638671875 48.69376754760742
50.17864990234375 -552.3419799804688 49.31689834594727
47.25841903686523 -552.0673217773438 47.15864181518555
47.68966674804688 -552.3944702148438 47.61564254760742
48.53866577148438 -552.779541015625 48.38135147094727
44.28412628173828 -550.478759765625 47.71667861938477
46.17390060424805 -553.3115234375 50.59709167480469
44.20371246337891 -550.9310302734375 47.89069366455078
48.75408554077148 -552.9725952148438 48.62463760375977
46.10021591186523 -553.560302734375 50.6707649230957
48.03134918212891 -553.78662109375 48.56072998046875
46.06290817260742 -553.1231689453125 46.86325454711914
46.96834182739258 -552.6759033203125 47.23431777954102
48.60107803344727 -551.6969604492188 47.81453323364258
48.76377487182617 -551.9359130859375 48.045654296875
48.97992706298828 -552.1368408203125 48.29267883300781
48.36952972412109 -553.2638549804688 48.46754837036133
46.9775390625 -552.6974487304688 47.20478820800781
48.59303283691406 -551.7364501953125 47.77555465698242
45.54850769042969 -550.5989379882813 48.7076530456543
45.47402954101563 -551.311279296875 49.01215362548828
45.22503280639648 -551.638916015625 48.9981689453125
45.93555450439453 -554.1305541992188 47.25564193725586
48.60829162597656 -552.790771484375 48.32850646972656
46.0667839050293 -553.17236328125 46.80849075317383
47.08591079711914 -552.6356201171875 47.20014953613281
46.12064361572266 -553.7246704101563 47.12841033935547
47.94859313964844 -552.9560546875 47.93061065673828
45.77647018432617 -555.0752563476563 47.59809875488281
47.6365852355957 -552.2098388671875 47.29830932617188
48.59424209594727 -551.7952270507813 47.70874404907227
48.11140823364258 -553.196044921875 48.11536026000977
48.26066207885742 -553.421630859375 48.32859802246094
46.05049896240234 -554.3948364257813 47.34538650512695
43.86355590820313 -552.4087524414063 48.39564895629883
46.95945358276367 -551.39404296875 50.14445495605469
46.4864616394043 -552.05810546875 50.13925552368164
46.18682479858398 -552.3914794921875 50.09101486206055
45.84595108032227 -554.8112182617188 47.42739486694336
49.23535537719727 -553.14892578125 48.76321411132813
48.1224250793457 -551.8751220703125 47.34000015258789
48.32217025756836 -553.108154296875 48.10297012329102
48.64199447631836 -553.558837890625 48.54010009765625
46.73384475708008 -552.7118530273438 46.83616638183594
48.27256011962891 -551.7828979492188 47.34041976928711
48.64504241943359 -553.5845947265625 48.50506973266602
46.91703796386719 -552.5878295898438 46.84104919433594
48.02671813964844 -552.0154418945313 47.24980545043945
45.86695861816406 -554.8657836914063 47.34799957275391
48.10219192504883 -551.6222534179688 47.04761123657227
44.66006469726563 -550.0391235351563 47.73123168945313
47.60298538208008 -552.4873046875 51.17913436889648
44.77331924438477 -550.183349609375 47.88833236694336
44.49084091186523 -550.573486328125 47.88311004638672
46.36061859130859 -553.4158325195313 46.82891464233398
46.53540802001953 -553.5800170898438 47.02266311645508
46.37033081054688 -553.43115234375 46.80517196655273
46.53596496582031 -553.6026611328125 46.99631881713867
46.06494140625 -554.7971801757813 47.31817245483398
46.27207946777344 -553.2339477539063 46.59798049926758
46.41521072387695 -553.4229736328125 46.78351974487305
46.55960464477539 -553.612060546875 46.9698600769043
46.77715682983398 -554.33642578125 47.47639465332031
46.42359161376953 -553.4423217773438 46.75598907470703
47.73708343505859 -552.4798583984375 46.92939376831055
48.90842056274414 -552.2935180664063 47.53633117675781
44.26644515991211 -551.304443359375 48.09587097167969
45.63354873657227 -551.2576904296875 49.0596809387207
43.890625 -552.4127807617188 48.38393783569336
45.74289321899414 -551.8809814453125 49.4602165222168
46.04730987548828 -552.223876953125 49.85850143432617
47.75224685668945 -552.4951782226563 46.90141296386719
47.81409454345703 -552.7862548828125 47.08791732788086
48.93802261352539 -552.3010864257813 47.50822067260742
46.66616821289063 -553.68115234375 46.81834030151367
46.90438079833984 -553.8063354492188 47.0235481262207
46.69306945800781 -553.6864624023438 46.79392623901367
46.92684173583984 -553.8383178710938 46.970458984375
47.99391174316406 -552.7937622070313 46.95701599121094
46.46739959716797 -554.8255004882813 47.04272842407227
46.59499359130859 -554.7640380859375 47.04397201538086
47.40396499633789 -554.5335693359375 47.38047409057617
47.51961898803711 -554.7787475585938 47.52824020385742
49.77165985107422 -552.8701171875 47.54050445556641
46.3140754699707 -552.6060180664063 50.24954986572266
46.06636810302734 -549.1232299804688 48.24257278442383
44.751953125 -553.4440307617188 49.54231643676758
46.22880935668945 -549.7821655273438 48.70004653930664
47.61727523803711 -554.5682983398438 47.20938491821289
45.01702880859375 -553.7915649414063 49.91435623168945
45.56827926635742 -550.6288452148438 48.65699768066406
49.77648544311523 -552.9247436523438 47.46639633178711
47.5270881652832 -554.6474609375 47.15701293945313
47.54161834716797 -554.6613159179688 47.12975692749023
48.14105987548828 -553.191650390625 46.37149810791016
48.15294647216797 -553.2064819335938 46.34435272216797
48.34180068969727 -553.1277465820313 46.30417633056641
48.37231826782227 -552.7899169921875 46.099365234375
48.17419052124023 -553.599365234375 46.41820907592773
48.31373596191406 -552.8570556640625 46.06193161010742
48.16003036499023 -553.6326293945313 46.38541412353516
48.16697692871094 -553.677001953125 46.32307434082031
48.1807861328125 -553.3634643554688 46.12633514404297
48.19441223144531 -553.381103515625 46.09371566772461
48.48437118530273 -553.6171264648438 46.17233276367188
44.42354583740234 -551.435546875 48.24204635620117
46.34259796142578 -550.7069702148438 49.25890731811523
45.64956665039063 -551.2688598632813 49.03777694702148
48.26692962646484 -550.3648681640625 50.46849060058594
43.90182876586914 -552.4224243164063 48.36546325683594
46.05735778808594 -552.2378540039063 49.83180999755859
45.00461959838867 -549.3881225585938 47.57219696044922
46.07195281982422 -549.142333984375 48.2154541015625
44.81879043579102 -553.2432250976563 49.45198059082031
45.132080078125 -553.575927734375 49.85007858276367
46.21820068359375 -549.8101806640625 48.66509628295898
45.04364776611328 -553.7998657226563 49.90126800537109
45.58081436157227 -550.6416625976563 48.63380813598633
46.45018005371094 -554.02685546875 51.036865234375
44.43896484375 -551.4443359375 48.22390747070313
46.35317611694336 -550.7222900390625 49.23211669921875
45.53229522705078 -551.3405151367188 48.95101928710938
48.49474334716797 -550.2907104492188 50.54353332519531
46.42753219604492 -551.4171752929688 49.63498306274414
45.76686859130859 -551.9069213867188 49.41136932373047
45.03496932983398 -549.38720703125 47.55735778808594
48.04631423950195 -552.154296875 51.17953109741211
46.08378982543945 -549.1572265625 48.19074249267578
45.12713623046875 -550.0180053710938 47.94864654541016
45.82502365112305 -553.2228393554688 50.13024520874023
45.18798065185547 -550.2061157226563 48.08918762207031
48.38391494750977 -552.9182739257813 51.81560897827148
46.22531890869141 -549.8277587890625 48.63771438598633
44.35478973388672 -551.1119995117188 47.95872497558594
45.59820556640625 -550.6519165039063 48.61279296875
46.46591186523438 -554.0393676757813 51.01174163818359
46.35202789306641 -550.7431640625 49.19983673095703
45.31533432006836 -551.4577026367188 48.8151969909668
47.98970031738281 -550.5313720703125 50.25129318237305
43.96680068969727 -552.4254150390625 48.34867858886719
44.0446662902832 -552.5742797851563 48.48093414306641
46.00918197631836 -552.06201171875 49.62235641479492
45.07249450683594 -549.3826293945313 47.54328918457031
47.996826171875 -552.1892700195313 51.10931396484375
46.08221435546875 -549.1823120117188 48.15922546386719
44.85024261474609 -553.2638549804688 49.41177749633789
45.05709838867188 -553.4151000976563 49.63753890991211
45.25243377685547 -550.1880493164063 48.08659744262695
46.21870422363281 -549.8546142578125 48.60280227661133
45.73353958129883 -550.3695068359375 48.5225830078125
45.6445426940918 -550.648193359375 48.60272979736328
46.43592834472656 -554.0587768554688 50.95479583740234
47.23960876464844 -550.07763671875 49.44437408447266
46.36178588867188 -550.760009765625 49.17079925537109
46.34914398193359 -551.1769409179688 43.29988861083984
45.31544876098633 -551.4752807617188 48.78686141967773
48.01126861572266 -550.544921875 50.22438430786133
44.04072570800781 -552.5897216796875 48.45420455932617
46.13527679443359 -552.0352783203125 49.65769958496094
47.0611686706543 -551.9636840820313 50.2789421081543
45.11696624755859 -549.371826171875 47.53302001953125
46.08585739135742 -549.2024536132813 48.13156127929688
48.21609497070313 -552.7098999023438 51.48360824584961
44.5666389465332 -551.2318725585938 48.10194396972656
46.37118530273438 -554.0816040039063 50.87800598144531
47.2630615234375 -550.0884399414063 49.4207649230957
46.35536575317383 -550.7831420898438 49.13626861572266
45.32809829711914 -551.4882202148438 48.76282501220703
44.06278610229492 -552.5963134765625 48.43943023681641
47.0685920715332 -551.9813842773438 50.24547576904297
45.14666366577148 -549.3729248046875 47.51596450805664
47.77701187133789 -552.0213623046875 50.76621627807617
46.08879852294922 -549.224365234375 48.10189437866211
46.04279327392578 -553.4488525390625 50.27592086791992
45.77101898193359 -550.39013671875 48.47900009155273
46.33916473388672 -551.166748046875 43.324951171875
46.37876129150391 -553.8563842773438 50.72275161743164
45.34737396240234 -551.4982299804688 48.74193572998047
45.93086624145508 -551.4666137695313 49.13499069213867
44.07635879516602 -552.6060791015625 48.42025375366211
47.77373504638672 -552.0433349609375 50.72422027587891
46.09801483154297 -549.2420654296875 48.0745849609375
46.75962448120117 -553.0768432617188 50.54439544677734
44.58263397216797 -550.6491088867188 47.74112319946289
46.48287200927734 -553.3770141601563 50.50466918945313
46.21974182128906 -549.9209594726563 48.50928497314453
46.51068115234375 -553.6112670898438 50.64464569091797
44.84613037109375 -550.9149780273438 48.06200408935547
46.40169143676758 -553.8685913085938 50.70055770874023
45.88407897949219 -550.8163452148438 48.73584365844727
45.9410514831543 -551.4817504882813 49.10767364501953
44.09325408935547 -552.6146240234375 48.40275955200195
47.03455352783203 -551.7817993164063 50.0239143371582
47.75497055053711 -552.0697631835938 50.67395782470703
46.76859664916992 -552.8483276367188 50.38703536987305
46.674560546875 -553.1133422851563 50.4577751159668
44.59536361694336 -550.6605224609375 47.72001647949219
46.49404907226563 -553.3914794921875 50.47503280639648
44.37185668945313 -550.9934692382813 47.73641586303711
46.00827026367188 -551.4708251953125 49.11148834228516
46.32528686523438 -551.15625 43.35195922851563
45.9924201965332 -551.9310302734375 49.3371696472168
44.06945419311523 -552.8147583007813 48.45953369140625
43.78160858154297 -553.2548828125 48.48644638061523
47.66716003417969 -552.3788452148438 50.72750091552734
46.25555038452148 -552.9899291992188 50.06387329101563
46.25373077392578 -553.2214965820313 50.18169784545898
44.58020782470703 -550.6861572265625 47.69124603271484
46.23317337036133 -553.4573364257813 50.28871154785156
45.62853240966797 -550.5277709960938 48.33255767822266
44.56442260742188 -551.3024291992188 47.99759292602539
47.37955856323242 -550.6602172851563 49.59596252441406
46.01435089111328 -551.9415893554688 49.31547546386719
47.04610824584961 -551.8159790039063 49.9608268737793
43.83023452758789 -553.2537841796875 48.48726272583008
44.94922256469727 -553.1259155273438 49.19147109985352
46.04889297485352 -549.5919189453125 48.09831237792969
46.34597778320313 -553.2178955078125 50.19983673095703
44.58456802368164 -550.702392578125 47.66703414916992
46.48848724365234 -553.423828125 50.40375137329102
44.40617752075195 -551.0079345703125 47.70212554931641
46.41305541992188 -553.6746215820313 50.48080825805664
45.65621566772461 -550.533447265625 48.31406021118164
46.29362106323242 -551.1481323242188 43.38128662109375
46.57291412353516 -553.888671875 50.70087814331055
44.57857513427734 -551.3128662109375 47.97714233398438
47.22527694702148 -550.2221069335938 49.22838592529297
46.50908660888672 -551.3046264648438 49.28135299682617
46.23652267456055 -551.8806762695313 49.39130401611328
44.09000015258789 -552.8372192382813 48.41648483276367
44.24200820922852 -553.1484375 48.68033981323242
44.95980072021484 -553.1389770507813 49.16585922241211
45.21155548095703 -553.2767944335938 49.40871810913086
44.76590728759766 -550.4035034179688 47.59894180297852
46.20738220214844 -553.2656860351563 50.08337783813477
47.22602462768555 -553.2991943359375 50.79657745361328
44.43891525268555 -551.008544921875 47.68803024291992
46.43156814575195 -553.6884765625 50.45388412475586
48.05972671508789 -549.2685546875 49.2548828125
45.76579284667969 -550.726318359375 48.44511795043945
46.82400512695313 -550.4411010742188 49.01790618896484
46.518798828125 -551.3197021484375 49.25408554077148
46.27169799804688 -551.1387939453125 43.40913772583008
46.69516372680664 -551.4908447265625 49.46181106567383
44.15193939208984 -552.6502685546875 48.33116149902344
44.09899139404297 -552.8475952148438 48.39662933349609
43.93410491943359 -553.0767211914063 48.40248107910156
46.27307510375977 -552.8065185546875 49.85155487060547
46.93006896972656 -552.879150390625 50.33491516113281
44.73210144042969 -550.4424438476563 47.56214904785156
47.04379272460938 -553.1009521484375 50.52614212036133
44.46672821044922 -551.0098266601563 47.67487716674805
47.61295318603516 -549.5311889648438 49.04003524780273
46.53370666503906 -550.3555908203125 48.73493576049805
46.00413131713867 -554.2289428710938 50.40014266967773
46.84095764160156 -550.4537963867188 48.99306869506836
45.99909210205078 -551.324462890625 48.86188888549805
48.77156829833984 -550.4219970703125 50.26773834228516
46.7231559753418 -551.5003051757813 49.44060134887695
44.17370223999023 -552.6571044921875 48.31593322753906
46.24949645996094 -551.1310424804688 43.43397521972656
44.10354995727539 -552.8602294921875 48.37303924560547
43.94178771972656 -553.0879516601563 48.38097381591797
47.23514556884766 -553.3318481445313 50.72723388671875
44.5019645690918 -551.0081787109375 47.66297912597656
47.04692840576172 -553.6178588867188 50.74729156494141
46.81822204589844 -553.9015502929688 50.7388916015625
47.13337707519531 -550.3355712890625 49.08305358886719
45.97338104248047 -551.8038330078125 49.05437850952148
46.55667495727539 -551.8195190429688 49.45345306396484
44.12192153930664 -552.8665771484375 48.35943603515625
46.5677375793457 -552.2896728515625 49.70250701904297
44.20942306518555 -553.19677734375 48.58777236938477
45.54854583740234 -549.508544921875 47.55882263183594
45.31045913696289 -553.0895385742188 49.270751953125
45.19944763183594 -549.968994140625 47.56291961669922
46.23723602294922 -551.1205444335938 43.46033096313477
42.72814559936523 -550.5316772460938 52.35541915893555
42.74338912963867 -550.5670776367188 52.32000350952148
46.43488311767578 -553.4977416992188 50.2342643737793
44.52896499633789 -551.0089721679688 47.65079116821289
47.05109405517578 -553.6320190429688 50.71636581420898
44.58133316040039 -551.1808471679688 47.77416229248047
42.83778762817383 -550.4810180664063 52.37331771850586
43.54465866088867 -550.2808837890625 53.34811782836914
43.58161926269531 -550.29052734375 53.32990646362305
42.95724868774414 -550.0125122070313 51.84304046630859
42.98052978515625 -550.0341796875 51.81855010986328
43.1998405456543 -550.3343505859375 52.41225051879883
43.3574333190918 -550.7423095703125 52.94125747680664
46.2366943359375 -551.1084594726563 43.48514556884766
43.53691864013672 -549.725341796875 52.38716506958008
43.82926559448242 -550.303466796875 53.25736999511719
43.51715469360352 -549.4781494140625 52.12704086303711
46.68383026123047 -550.3211059570313 48.73462677001953
46.3260498046875 -550.9798583984375 48.83471298217773
46.93072509765625 -551.7061157226563 49.60019302368164
43.5655517578125 -549.7451782226563 52.36197280883789
43.59780883789063 -549.7592163085938 52.34073257446289
44.1503791809082 -552.871337890625 48.34775924682617
43.72072219848633 -549.2802124023438 52.2327766418457
43.62509918212891 -549.7770385742188 52.3174934387207
43.71185302734375 -549.0013427734375 51.98258209228516
43.76617050170898 -549.2702026367188 52.2277717590332
43.66079711914063 -549.7818603515625 52.30317687988281
44.12978744506836 -549.4217529296875 52.98943328857422
43.73164749145508 -549.028076171875 51.955078125
44.15202713012695 -549.4465942382813 52.96072006225586
43.60763549804688 -550.9017944335938 52.72238159179688
44.14460754394531 -553.0511474609375 48.43631744384766
46.61787033081055 -552.5299682617188 49.81526184082031
45.31351089477539 -553.1041259765625 49.2418327331543
45.21426010131836 -549.980224609375 47.54083633422852
44.55755996704102 -551.0110473632813 47.63610458374023
43.09109497070313 -550.4537963867188 51.43703460693359
44.19028854370117 -549.4591064453125 52.93875503540039
47.02989959716797 -553.6522827148438 50.66631317138672
43.18513107299805 -551.2447509765625 52.03200912475586
43.59794616699219 -550.9758911132813 52.65152359008789
43.13507080078125 -550.4470825195313 51.42953491210938
43.15374374389648 -550.7340087890625 51.61661529541016
