128.6849975585938 35.45600128173828 1.174000024795532
134.5610046386719 34.3489990234375 0.460999995470047
128.6679992675781 36 1.085000038146973
128.6889953613281 36.32099914550781 0.5490000247955322
134.5690002441406 34.49900054931641 0.5189999938011169
130.3869934082031 35.83200073242188 0.8619999885559082
134.3260040283203 36.11899948120117 0.02700000070035458
134.1909942626953 34.84700012207031 0.4670000076293945
134.1390075683594 34.49800109863281 0.3779999911785126
134.093994140625 34.15299987792969 0.3709999918937683
134.0460052490234 34.07500076293945 -0.1609999984502792
130.2920074462891 35.68399810791016 -0.193000003695488
130.3029937744141 35.43299865722656 0.4329999983310699
130.2550048828125 35.35599899291992 -0.1110000014305115
130.2579956054688 35.09000015258789 0.4189999997615814
130.1790008544922 33.88999938964844 1.529999971389771
130.2180023193359 33.6870002746582 2.444999933242798
134.2899932861328 34.61399841308594 0.6330000162124634
134.3159942626953 34.31399917602539 0.4120000004768372
133.9530029296875 37.68600082397461 0.4129999876022339
133.8659973144531 35.88800048828125 0.09700000286102295
133.8049926757813 35.51499938964844 -0.07800000160932541
133.7299957275391 34.59199905395508 0.5720000267028809
133.6820068359375 33.7239990234375 1.480000019073486
133.6479949951172 33.38600158691406 1.628999948501587
133.5989990234375 33.30899810791016 1.100000023841858
134.0379943847656 36.07400131225586 0.0820000022649765
134.0500030517578 34.77199935913086 0.7390000224113464
134.0760040283203 34.41500091552734 0.5569999814033508
134.1009979248047 34.07799911499023 0.3680000007152557
134.1430053710938 34.00400161743164 -0.2419999986886978
128.7079925537109 34.35599899291992 1.53600001335144
130.0599975585938 36.32400131225586 0.9940000176429749
129.9920043945313 36.21599960327148 0.2290000021457672
129.697998046875 35.75500106811523 -3.055999994277954
129.822998046875 35.67800140380859 -1.138000011444092
128.6809997558594 33.95299911499023 2.210000038146973
129.8630065917969 35.47299957275391 -0.2080000042915344
133.47900390625 35.76399993896484 0.6869999766349792
133.4380035400391 35.41400146484375 0.753000020980835
133.4080047607422 35.09199905395508 0.9350000023841858
133.3829956054688 35.05300140380859 0.6579999923706055
133.3549957275391 34.74599838256836 0.8320000171661377
133.3049926757813 34.38899993896484 0.7730000019073486
133.3480072021484 34.19200134277344 1.741999983787537
133.2960052490234 33.85699844360352 1.631999969482422
129.7879943847656 35.10200119018555 -0.5770000219345093
133.2510070800781 33.52000045776367 1.616000056266785
129.8809967041016 34.97800064086914 0.9539999961853027
133.1929931640625 33.15800094604492 1.473000049591064
133.7480010986328 35.71599960327148 0.3540000021457672
133.1479949951172 32.79899978637695 1.503999948501587
133.1679992675781 32.58300018310547 2.17300009727478
129.8000030517578 34.04100036621094 1.557999968528748
133.7850036621094 35.49599838256836 -0.09300000220537186
134.8359985351563 34.25699996948242 0.5559999942779541
133.7550048828125 35.0359992980957 0.675000011920929
133.7749938964844 34.63899993896484 0.6119999885559082
129.0809936523438 35.3129997253418 -0.3600000143051147
128.9600067138672 34.24100112915039 2.200000047683716
128.9869995117188 34.64699935913086 1.52400004863739
128.9909973144531 35.45199966430664 0.9309999942779541
128.9499969482422 35.53799819946289 1.509999990463257
128.9949951171875 36.20600128173828 0.3989999890327454
133.8029937744141 34.2859992980957 0.3919999897480011
133.7630004882813 33.64899826049805 1.455999970436096
133.8339996337891 33.99800109863281 0.09099999815225601
133.7960052490234 33.40200042724609 1.090999960899353
129.7890014648438 33.49200057983398 2.417999982833862
130.6009979248047 33.53400039672852 2.497999906539917
130.5460052490234 33.98400115966797 0.8980000019073486
130.6360015869141 34.37699890136719 1.425999999046326
133.3520050048828 36.53499984741211 0.8009999990463257
133.2169952392578 36.17499923706055 0.8080000281333923
133.1600036621094 36.08599853515625 0.1700000017881393
130.6840057373047 34.98899841308594 0.9779999852180481
133.375 36.10200119018555 0.7080000042915344
133.1219940185547 35.2599983215332 1.16100001335144
133.0930023193359 34.92599868774414 1.360999941825867
133.031005859375 34.82799911499023 0.6729999780654907
133.0140075683594 34.5260009765625 0.9909999966621399
133.3829956054688 35.51699829101563 0.9570000171661377
133.4129943847656 35.24300003051758 0.6729999780654907
132.9850006103516 33.93999862670898 1.664000034332275
133.3939971923828 34.95000076293945 1.159999966621399
133.3840026855469 34.06999969482422 1.906999945640564
132.9400024414063 33.35400009155273 2.105999946594238
133.4589996337891 32.96599960327148 1.421000003814697
130.7830047607422 35.6870002746582 1.088000059127808
132.9320068359375 33.08100128173828 2.493000030517578
129.5379943847656 35.47999954223633 -4.073999881744385
129.3190002441406 35.80500030517578 -3.630000114440918
129.2669982910156 35.72499847412109 -4.199999809265137
129.4869995117188 35.41600036621094 -3.239000082015991
129.4369964599609 35.71699905395508 -1.799999952316284
129.3609924316406 35.59700012207031 -2.648000001907349
133.0039978027344 36.54499816894531 1.139999985694885
129.5749969482422 35.66400146484375 0.2409999966621399
129.4369964599609 35.39899826049805 -2.453000068664551
129.4010009765625 35.56600189208984 -2.002000093460083
129.4830017089844 35.51900100708008 -0.7870000004768372
133.0760040283203 36.16299819946289 0.2479999959468842
129.2400054931641 33.93299865722656 1.542999982833862
130.9499969482422 37.00699996948242 0.9779999852180481
129.2209930419922 34.4109992980957 1.519999980926514
129.2230072021484 35.16999816894531 1.009999990463257
129.2579956054688 35.6879997253418 0.1459999978542328
133.0899963378906 34.86800003051758 0.875
133.0500030517578 34.22299957275391 1.950000047683716
133.0789947509766 33.95299911499023 1.651000022888184
129.64599609375 35.50400161743164 1.532999992370605
133.0950012207031 33.49800109863281 1.695000052452087
133.0709991455078 33.11399841308594 2.33899998664856
133.1239929199219 33.15700149536133 1.45799994468689
132.9909973144531 36.70100021362305 1.083999991416931
129.5809936523438 35.1349983215332 1.297999978065491
132.8070068359375 36.03499984741211 0.8690000176429749
132.9400024414063 36.33399963378906 1.039999961853027
132.8410034179688 35.82199859619141 0.4740000069141388
132.8789978027344 35.98199844360352 0.8389999866485596
132.8280029296875 35.90200042724609 0.2750000059604645
132.8049926757813 35.57899856567383 0.5460000038146973
132.7779998779297 35.28300094604492 0.7049999833106995
129.7640075683594 35.53499984741211 -3.778000116348267
132.7720031738281 35.00799942016602 1.134999990463257
132.7279968261719 34.9379997253418 0.640999972820282
132.7149963378906 34.66799926757813 0.9549999833106995
132.6640014648438 34.30300140380859 0.9139999747276306
132.7270050048828 34.13100051879883 2.118000030517578
132.8059997558594 35.2869987487793 1.366000056266785
132.8650054931641 35.44100189208984 0.3260000050067902
132.6490020751953 33.73699951171875 1.738999962806702
132.6470031738281 33.45999908447266 2.217000007629395
132.8419952392578 35.06900024414063 0.9459999799728394
132.8589935302734 34.54199981689453 1.014000058174133
129.7059936523438 35.47200012207031 -2.842999935150146
132.8379974365234 33.47999954223633 2.063999891281128
129.6510009765625 35.33399963378906 -1.898000001907349
131.0350036621094 33.89500045776367 1.274999976158142
129.6000061035156 35.3120002746582 -1.100000023841858
131.0440063476563 34.18199920654297 0.8619999885559082
129.4739990234375 34.11100006103516 1.633000016212463
129.5549926757813 35.33200073242188 -0.4070000052452087
129.4960021972656 35.24200057983398 0.5519999861717224
129.4109954833984 35.97200012207031 1.29200005531311
132.6049957275391 35.75899887084961 0.9490000009536743
132.6430053710938 34.85200119018555 0.9279999732971191
132.6549987792969 33.46699905395508 1.654000043869019
129.4320068359375 35.03200149536133 1.687999963760376
129.4149932861328 35.49700164794922 1.66100001335144
129.4069976806641 36.14599990844727 1.351999998092651
131.1329956054688 34.84199905395508 0.9010000228881836
129.2480010986328 34.38299942016602 1.942000031471252
132.3990020751953 35.90999984741211 1.037999987602234
132.4389953613281 35.09199905395508 0.9340000152587891
132.4470062255859 34.40200042724609 1.271999955177307
131.2920074462891 35.89799880981445 1.190999984741211
132.4210052490234 33.30300140380859 2.405999898910522
131.3170013427734 36.20999908447266 0.9509999752044678
132.4400024414063 32.80799865722656 2.417999982833862
131.3760070800781 36.5890007019043 1.090000033378601
129.8990020751953 35.47700119018555 -2.450000047683716
128.3580017089844 34.21200180053711 2.023000001907349
128.343994140625 34.79299926757813 1.860000014305115
132.6369934082031 36.08200073242188 0.9459999799728394
132.5820007324219 35.70800018310547 0.8500000238418579
132.5279998779297 35.36999893188477 0.7160000205039978
129.2160034179688 36.13700103759766 1.417999982833862
132.4980010986328 35.0369987487793 0.906000018119812
129.8379974365234 35.3650016784668 -1.445000052452087
129.1049957275391 35.96099853515625 0.1739999949932098
132.4620056152344 34.72700119018555 0.9760000109672546
129.6999969482422 33.96699905395508 1.613999962806702
132.4380035400391 34.42599868774414 1.194000005722046
129.7859954833984 35.27799987792969 -0.5770000219345093
129.7469940185547 35.40299987792969 -0.0390000008046627
129.7039947509766 35.46900177001953 0.5640000104904175
129.6529998779297 35.46500015258789 1.381999969482422
132.4029998779297 33.83100128173828 1.792999982833862
132.1799926757813 36.04499816894531 1.177000045776367
129.0659942626953 35.64400100708008 0.2169999927282333
132.4029998779297 33.56000137329102 2.299999952316284
132.2209930419922 35.18199920654297 1.090000033378601
132.2389984130859 34.73199844360352 1.08899998664856
132.2220001220703 32.95600128173828 2.529000043869019
129.0130004882813 34.45899963378906 1.646000027656555
132.0440063476563 34.87099838256836 1.233999967575073
132.0480041503906 32.82300186157227 2.48799991607666
132.3320007324219 32.90999984741211 2.486999988555908
128.8710021972656 35.90000152587891 0.9760000109672546
128.802001953125 35.78799819946289 0.1840000003576279
131.7669982910156 35.66899871826172 1.075000047683716
131.7510070800781 34.68299865722656 1.967000007629395
131.8000030517578 34.67200088500977 1.210999965667725
131.8329925537109 34.4010009765625 0.8600000143051147
128.7010040283203 34.28799819946289 1.572999954223633
128.718994140625 34.04299926757813 2.266000032424927
131.5410003662109 34.40000152587891 0.9139999747276306
131.4570007324219 36.36600112915039 0.9890000224113464
131.4660034179688 35.79899978637695 1.213000059127808
131.5879974365234 34.75 0.9340000152587891
131.5079956054688 34.94699859619141 1.115000009536743
131.5319976806641 34.59299850463867 0.9509999752044678
128.5610046386719 36.04999923706055 0.984000027179718
128.5099945068359 35.68500137329102 0.9470000267028809
128.4010009765625 34.45700073242188 1.687999963760376
128.3970031738281 34.18099975585938 2.144999980926514
129.8869934082031 33.75799942016602 1.578999996185303
130.0010070800781 35.50400161743164 -1.340999960899353
131.8150024414063 36.42499923706055 1.023000001907349
129.9389953613281 35.34999847412109 -0.2669999897480011
131.2250061035156 34.7859992980957 1.013000011444092
129.8780059814453 35.84600067138672 0.3619999885559082
129.843994140625 36.03300094604492 0.7680000066757202
131.2680053710938 33.94599914550781 0.8840000033378601
130.9470062255859 35.00899887084961 1.034999966621399
132.4279937744141 36.20100021362305 1.080000042915344
130.9589996337891 34.49900054931641 1.171000003814697
132.3789978027344 35.86299896240234 1.024999976158142
132.3339996337891 35.51800155639648 1.031000018119812
130.97900390625 34.07400131225586 1.129999995231628
132.281005859375 35.14300155639648 0.9629999995231628
130.9949951171875 33.57099914550781 1.190000057220459
128.0449981689453 34.34400177001953 1.952000021934509
132.2369995117188 34.82199859619141 0.9470000267028809
128.0299987792969 34.40499877929688 2.052000045776367
128.0709991455078 34.28099822998047 1.48800003528595
130.6519927978516 35.90800094604492 -0.07999999821186066
130.6130065917969 35.31999969482422 0.8989999890327454
130.5910034179688 33.46200180053711 2.476000070571899
130.64599609375 33.60900115966797 1.503000020980835
132.1909942626953 33.69699859619141 2.357000112533569
131.9109954833984 34.25299835205078 0.8619999885559082
131.9700012207031 34.60300064086914 1.052000045776367
132.0249938964844 34.97299957275391 1.141999959945679
132.1549987792969 35.97700119018555 1.121000051498413
130.2530059814453 35.9900016784668 0.9139999747276306
130.3029937744141 35.26900100708008 0.5809999704360962
130.3379974365234 34.99599838256836 0.2140000015497208
130.0229949951172 33.98899841308594 1.577999949455261
130.25 33.64199829101563 2.479000091552734
130.3070068359375 33.77299880981445 1.48800003528595
129.9739990234375 36.16699981689453 0.9359999895095825
130.0130004882813 36.06000137329102 0.3740000128746033
130.0630035400391 35.3129997253418 0.08299999684095383
