-8.605 46.435 7.529
-8.603 46.423 7.569
-8.602 46.418 7.611
-8.603 46.424 7.654
-8.604 46.428 7.697
-8.595 46.378 7.731
-8.589 46.348 7.768
-8.735 47.133 8.115
-8.731 47.114 8.154
-8.636 46.603 8.108
-8.74 47.161 8.249
-8.574 46.264 8.134
-8.873 47.646 2.208
-8.868 47.619 2.249
-8.873 47.648 2.292
-8.762 47.051 2.766
-8.747 46.972 2.929
-8.742 46.943 2.969
-9.139 49.074 3.148
-8.927 47.938 3.203
-9.422 50.595 3.426
-9.498 51.003 3.772
-9.096 48.842 3.873
-9.396 50.456 4.182
-8.967 48.151 4.249
-8.896 47.769 4.343
-8.75 46.987 4.862
-8.755 47.011 4.906
-8.928 47.943 5.046
-9.275 49.805 5.466
-8.489 45.586 5.126
-8.552 45.925 5.329
-8.549 45.906 5.368
-8.55 45.912 5.41
-8.549 45.906 5.451
-8.548 45.901 5.491
-8.547 45.897 5.532
-8.615 46.259 5.618
-8.621 46.291 5.663
-8.791 47.205 5.817
-8.789 47.196 5.901
-8.521 45.755 5.762
-8.503 45.658 5.791
-8.242 44.258 5.733
-8.589 46.122 6.017
-8.897 47.778 6.362
-8.666 46.537 6.281
-9.113 48.933 6.648
-9.041 48.547 6.64
-9.09 48.811 6.764
-8.401 45.111 6.415
-8.724 46.849 6.747
-8.716 46.805 6.783
-8.714 46.795 6.824
-8.715 46.8 6.867
-8.715 46.798 6.909
-8.576 46.055 7.133
-8.326 44.709 7.209
-8.651 46.452 7.533
-8.651 46.455 7.576
-8.648 46.436 7.657
-8.654 46.474 7.706
-8.777 47.13 8.158
-8.781 47.151 8.205
-8.676 46.591 8.15
-8.776 47.125 8.33
-8.77 47.091 8.367
-8.765 47.07 8.406
-8.762 47.049 8.446
-8.758 47.03 8.485
-8.758 47.031 8.528
-8.74 46.93 8.898
-9.203 49.182 1.405
-8.908 47.606 2.248
-8.909 47.611 2.291
-8.807 47.066 2.726
-8.966 47.916 3.159
-8.965 47.908 3.201
-8.945 47.799 3.407
-9.537 50.965 3.815
-9.571 51.145 4.011
-9.476 50.638 4.062
-9.005 48.122 4.204
-9.404 50.252 4.435
-8.789 46.966 4.86
-9.313 49.771 5.508
-8.589 45.9 5.327
-8.586 45.882 5.366
-9.274 49.558 5.841
-8.619 46.06 5.47
-8.584 45.872 5.571
-8.58 45.853 5.61
-8.577 45.837 5.65
-8.573 45.813 5.688
-8.568 45.786 5.726
-8.563 45.76 5.764
-8.556 45.724 5.801
-8.569 45.793 5.851
-8.63 46.117 6.017
-9.091 48.58 6.558
-9.089 48.573 6.601
-8.47 45.262 6.273
-8.576 45.832 6.435
-8.766 46.848 6.705
-8.759 46.808 6.742
-8.756 46.789 6.781
-8.756 46.792 6.824
-8.764 46.834 6.873
-8.673 46.347 6.969
-8.607 45.996 7.126
-8.519 45.527 7.094
-8.41 44.941 7.125
-8.381 44.786 7.142
-8.691 46.444 7.575
-8.814 47.103 8.155
-8.68 46.385 8.243
-9.09 48.575 8.854
-8.798 47.018 8.614
-8.797 47.013 8.656
-8.797 47.009 8.698
-8.794 46.997 8.739
-8.792 46.986 8.78
-8.79 46.974 8.821
-8.789 46.967 8.863
-9.244 49.399 10.05
-9.247 49.176 1.405
-8.947 47.58 2.248
-8.948 47.586 2.29
-8.853 47.081 2.685
-9.461 50.319 2.959
-9.463 50.327 3.005
-9.465 50.337 3.05
-9.468 50.352 3.096
-9.201 48.936 3.096
-9.001 47.872 3.157
-9.004 47.887 3.2
-9.579 50.942 3.859
-9.579 50.946 3.905
-9.598 51.047 3.958
-9.167 48.755 3.868
-9.524 50.65 4.063
-9.498 50.515 4.098
-9.491 50.474 4.139
-9.042 48.09 4.202
-8.974 47.727 4.384
-9.236 49.12 4.952
-9.35 49.727 5.549
-9.347 49.708 5.591
-8.602 45.75 5.269
-8.626 45.876 5.325
-8.623 45.857 5.364
-8.657 46.039 5.468
-8.865 47.144 5.854
-8.531 45.371 6.003
-9.129 48.553 6.555
-8.518 45.3 6.239
-8.616 45.82 6.435
-8.807 46.84 6.748
-8.796 46.781 6.781
-8.799 46.798 6.826
-8.463 45.009 6.647
-8.734 46.448 6.944
-8.433 44.851 7.153
-8.433 44.85 7.194
-8.433 44.849 7.234
-8.433 44.848 7.275
-8.433 44.847 7.316
-8.431 44.84 7.355
-8.43 44.832 7.395
-8.428 44.825 7.435
-8.853 47.082 8.153
-8.558 45.515 8.006
-8.765 46.615 8.285
-9.116 48.482 8.661
-9.119 48.497 8.708
-9.124 48.522 8.757
-8.852 47.076 8.712
-8.829 46.953 8.905
-8.827 46.946 8.947
-9.177 48.804 9.435
-9.251 49.199 9.92
-9.29 49.17 1.405
-8.991 47.59 2.206
-8.986 47.56 2.247
-8.988 47.571 2.29
-8.903 47.12 2.604
-8.899 47.099 2.645
-9.033 47.81 3.111
-9.036 47.825 3.154
-9.624 50.937 3.996
-9.207 48.73 3.866
-9.59 50.756 4.073
-9.547 50.532 4.1
-9.533 50.458 4.139
-9.082 48.068 4.201
-9.476 50.158 4.473
-9.001 47.64 4.547
-9.043 47.865 4.998
-9.389 49.696 5.591
-9.382 49.657 5.631
-9.295 49.196 5.623
-8.656 45.814 5.319
-8.659 45.833 5.362
-8.902 47.115 5.852
-8.575 45.386 6.005
-9.169 48.528 6.553
-8.563 45.321 6.243
-8.849 46.835 6.705
-8.839 46.786 6.741
-8.838 46.78 6.782
-8.844 46.81 6.829
-8.863 46.911 6.886
-8.504 45.01 6.648
-9.245 48.933 7.272
-8.479 44.878 7.077
-8.474 44.853 7.114
-8.466 44.811 7.27
-8.465 44.803 7.31
-8.462 44.79 7.348
-8.46 44.778 7.387
-8.458 44.768 7.426
-8.457 44.759 7.466
-8.456 44.754 7.506
-9.144 48.399 8.515
-9.083 48.075 9.031
-8.861 46.898 9.111
-8.858 46.883 9.152
-8.856 46.871 9.193
-9.259 49.005 9.792
-9.333 49.165 1.405
-9.023 47.532 2.246
-9.023 47.531 2.288
-8.945 47.119 2.562
-9.257 48.761 3.043
-9.063 47.738 3.064
-9.067 47.763 3.108
-9.08 47.83 3.155
-9.55 50.305 3.812
-9.544 50.277 3.855
-9.54 50.254 3.898
-9.559 50.352 4.131
-9.539 50.251 4.167
-9.115 48.016 4.154
-9.114 48.007 4.196
-9.533 50.214 4.434
-9.515 50.123 4.471
-9.052 47.682 4.424
-9.341 49.205 5.536
-9.33 49.148 5.618
-9.411 49.574 5.712
-9.405 49.542 5.752
-8.699 45.825 5.362
-8.724 45.954 5.501
-8.935 47.065 5.846
-8.751 46.097 5.976
-9.032 47.575 6.253
-9.239 48.67 6.617
-8.613 45.369 6.209
-8.696 45.807 6.393
-8.887 46.812 6.703
-8.708 45.868 6.61
-8.875 46.752 6.779
-8.882 46.786 6.827
-8.856 46.65 6.849
-8.639 45.508 7.012
-8.516 44.862 7.035
-8.514 44.847 7.073
-8.511 44.834 7.112
-8.509 44.824 7.151
-8.509 44.82 7.191
-8.814 46.429 7.619
-9.175 48.333 8.416
-9.178 48.348 8.463
-8.853 46.633 8.419
-9.129 48.089 8.814
-8.887 46.814 9.355
-8.884 46.798 9.396
-9.373 49.142 1.404
-9.067 47.536 2.247
-9.063 47.512 2.288
-9.064 47.522 2.331
-8.99 47.13 2.521
-9.11 47.759 2.683
-9.086 47.633 2.973
-9.091 47.661 3.017
-9.099 47.703 3.062
-9.117 47.797 3.367
-9.565 50.145 4.07
-9.564 50.14 4.114
-9.572 50.181 4.162
-9.195 48.208 4.128
-9.147 47.957 4.149
-9.146 47.949 4.192
-9.347 49.003 4.328
-9.548 50.058 4.51
-9.089 47.652 4.464
-9.088 47.646 4.507
-9.356 49.05 4.859
-8.948 46.91 4.731
-8.94 46.871 4.811
-8.864 46.47 4.937
-9.436 49.47 5.745
-8.742 45.831 5.364
-8.742 45.834 5.405
-8.76 45.928 5.499
-8.769 45.976 5.546
-8.979 47.073 5.848
-8.885 46.581 5.997
-8.791 46.089 5.976
-9.068 47.541 6.25
-8.661 45.409 6.052
-9.246 48.473 6.591
-8.654 45.373 6.211
-9.295 48.733 6.759
-9.298 48.746 6.805
-8.74 45.823 6.438
-8.741 45.829 6.481
-9.305 48.781 6.942
-8.922 46.774 6.699
-8.913 46.726 6.734
-8.915 46.738 6.778
-8.919 46.759 6.824
-8.666 45.434 6.878
-8.661 45.407 6.915
-8.678 45.498 6.97
-8.558 44.868 6.996
-8.557 44.861 7.036
-8.668 45.445 7.5
-8.668 45.443 7.541
-9.207 48.267 8.362
-9.176 48.107 8.643
-8.915 46.738 9.601
-9.123 47.604 -0.162
-9.119 47.582 -0.12
-9.111 47.543 -0.078
-9.115 47.56 -0.035
-9.102 47.496 0.007
-9.101 47.486 0.049
-9.099 47.476 0.091
-9.097 47.468 0.133
-9.096 47.461 0.175
-9.105 47.51 0.218
-9.099 47.48 0.26
-9.104 47.506 2.288
-9.102 47.494 2.33
-9.036 47.148 2.439
-9.036 47.151 2.481
-8.979 46.854 2.59
-9.112 47.546 2.883
-9.115 47.563 2.926
-9.123 47.604 2.971
-9.136 47.67 3.018
-9.151 47.751 3.364
-9.315 48.603 3.858
-9.599 50.087 4.11
-9.253 48.284 4.092
-9.363 48.855 4.184
-9.18 47.899 4.145
-9.178 47.89 4.187
-9.582 49.996 4.55
-9.13 47.64 4.464
-9.396 49.026 4.858
-8.974 46.824 4.807
-9.16 47.796 4.95
-9.392 49.004 5.207
-9.437 49.241 5.409
-9.472 49.424 5.696
-9.477 49.45 5.744
-8.787 45.852 5.367
-8.783 45.829 5.406
-8.799 45.913 5.498
-8.82 46.023 5.594
-9.019 47.063 5.848
-8.929 46.591 5.958
-9.104 47.506 6.246
-9.291 48.48 6.593
-8.7 45.396 6.215
-8.777 45.799 6.353
-8.954 46.724 6.693
-8.95 46.703 6.732
-8.951 46.706 6.775
-9.214 48.079 7.018
-9.212 48.069 7.06
-8.716 45.478 6.803
-8.716 45.48 7.01
-8.601 44.878 6.958
-8.714 45.471 7.091
-8.714 45.47 7.174
-8.713 45.462 7.214
-8.588 44.811 7.151
-8.897 46.425 7.747
-8.896 46.419 7.789
-8.898 46.427 7.833
-9.239 48.21 8.31
-9.225 48.134 8.428
-9.224 48.128 8.471
-9.597 50.077 8.952
-8.94 46.649 8.553
-9.16 47.569 -0.205
-9.155 47.546 -0.162
-9.149 47.513 -0.12
-9.143 47.483 -0.078
-9.155 47.545 -0.035
-9.135 47.443 0.007
-9.132 47.429 0.049
-9.13 47.415 0.091
-9.127 47.402 0.133
-9.131 47.42 0.175
-9.124 47.387 0.217
-9.124 47.383 0.259
-9.123 47.382 0.301
-9.124 47.382 0.344
-9.124 47.386 0.386
-9.126 47.397 0.428
-9.142 47.48 2.329
-9.142 47.479 2.372
-9.078 47.148 2.397
-9.18 47.673 2.636
-9.145 47.494 2.838
-9.148 47.512 2.881
-9.163 47.588 2.928
-9.187 47.712 3.362
-9.352 48.569 3.9
-8.789 45.646 3.747
-9.306 48.33 4.053
-9.214 47.85 4.142
-9.205 47.807 4.181
-9.507 49.371 4.539
-9.481 49.241 4.571
-9.169 47.618 4.463
-9.007 46.779 4.804
-9.199 47.773 4.949
-9.481 49.238 5.366
-9.508 49.378 5.648
-9.512 49.402 5.695
-8.825 45.834 5.407
-8.827 45.84 5.449
-8.973 46.6 5.918
-9.141 47.471 6.243
-8.747 45.428 6.097
-8.745 45.419 6.178
-9.331 48.459 6.635
-8.821 45.809 6.314
-8.991 46.693 6.69
-8.989 46.684 6.731
-8.992 46.699 6.775
-8.669 45.024 6.695
-8.648 44.912 6.883
-8.644 44.89 6.92
-8.967 46.57 7.731
-8.937 46.413 7.832
-8.934 46.399 7.872
-9.269 48.14 8.211
-9.271 48.146 8.256
-8.985 46.665 8.643
-9.196 47.535 -0.204
-9.19 47.504 -0.162
-9.184 47.473 -0.12
-9.183 47.468 -0.078
-9.174 47.424 -0.035
-9.171 47.408 0.007
-9.168 47.392 0.049
-9.165 47.377 0.091
-9.162 47.361 0.133
-9.16 47.351 0.175
-9.159 47.342 0.217
-9.157 47.334 0.259
-9.156 47.327 0.301
-9.155 47.321 0.343
-9.153 47.315 0.385
-9.154 47.316 0.427
-9.154 47.317 0.469
-9.155 47.321 0.511
-9.156 47.33 0.554
-9.16 47.348 0.596
-9.474 48.971 1.444
-9.125 47.169 2.314
-9.122 47.151 2.356
-9.186 47.481 2.414
-9.184 47.471 2.752
-9.182 47.461 2.794
-9.188 47.494 2.838
-9.188 47.492 2.881
-9.431 48.749 3.131
-9.224 47.678 3.36
-8.836 45.673 3.668
-9.679 50.032 4.107
-9.359 48.379 4.015
-9.236 47.742 4.176
-9.29 48.019 4.243
-9.58 49.52 4.464
-9.565 49.441 4.501
-9.544 49.334 4.536
-9.522 49.222 4.57
-9.209 47.6 4.462
-9.488 49.043 4.641
-9.474 48.971 4.678
-9.471 48.958 4.721
-9.47 48.949 4.764
-9.469 48.944 4.807
-9.469 48.947 4.851
-9.065 46.859 4.686
-9.475 48.979 4.942
-9.043 46.743 4.801
-9.034 46.7 4.838
-9.525 49.238 5.322
-9.54 49.311 5.463
-9.54 49.314 5.508
-9.114 47.112 5.304
-9.545 49.34 5.6
-9.549 49.36 5.646
-8.87 45.85 5.41
-8.867 45.834 5.449
-9.016 46.607 5.877
-9.01 46.573 6.041
-9.177 47.437 6.239
-8.789 45.43 6.098
-8.79 45.438 6.141
-8.788 45.427 6.18
-9.374 48.454 6.636
-9.033 46.692 6.648
-9.028 46.668 6.687
-9.029 46.67 6.73
-9.035 46.703 6.777
-8.789 45.433 6.716
-8.707 45.007 6.735
-8.698 44.96 6.81
-8.691 44.925 6.845
-8.688 44.911 6.884
-9.032 46.686 7.326
-9.16 47.349 7.473
-9.369 48.427 7.731
-9.015 46.601 7.78
-9.296 48.052 8.153
-8.974 46.388 7.913
-8.972 46.376 7.954
-8.735 45.151 8.406
-9.01 46.574 10.004
-9.234 47.508 -0.204
-9.228 47.479 -0.162
-9.222 47.45 -0.12
-9.223 47.452 -0.078
-9.213 47.403 -0.035
-9.21 47.386 0.007
-9.207 47.368 0.049
-9.203 47.351 0.091
-9.2 47.335 0.133
-9.198 47.324 0.175
-9.196 47.312 0.217
-9.194 47.302 0.259
-9.192 47.291 0.301
-9.19 47.282 0.343
-9.188 47.275 0.385
-9.187 47.269 0.427
-9.186 47.264 0.469
-9.186 47.261 0.511
-9.185 47.258 0.553
-9.185 47.258 0.595
-9.186 47.262 0.637
-9.187 47.268 0.679
-9.19 47.281 0.721
-9.196 47.314 0.764
-9.166 47.158 2.272
-9.164 47.148 2.314
-9.22 47.44 2.37
-9.22 47.438 2.413
-9.599 49.389 2.732
-9.22 47.439 2.709
-9.221 47.441 2.751
-9.224 47.457 2.794
-9.435 48.541 2.945
-9.226 47.469 3.007
-8.903 45.807 3.433
-8.882 45.7 3.589
-9.4 48.363 3.971
-9.275 47.72 4.004
-9.271 47.697 4.172
-9.264 47.664 4.212
-9.351 48.11 4.295
-9.62 49.495 4.463
-9.622 49.504 4.508
-9.249 47.585 4.461
-9.517 48.963 4.634
-9.51 48.931 4.675
-9.512 48.939 4.72
-9.514 48.949 4.765
-9.515 48.957 4.809
-9.513 48.944 4.852
-9.512 48.938 4.895
-9.512 48.938 4.939
-9.513 48.943 4.984
-9.083 46.731 4.8
-9.039 46.507 4.819
-9.522 48.989 5.12
-9.562 49.196 5.275
-9.567 49.223 5.322
-9.571 49.244 5.368
-9.575 49.266 5.415
-9.579 49.284 5.461
-9.584 49.308 5.508
-8.907 45.829 5.45
-8.907 45.826 5.491
-9.138 47.016 5.888
-9.056 46.595 5.877
-9.218 47.425 6.239
-8.832 45.44 6.101
-8.83 45.431 6.141
-9.417 48.453 6.637
-9.42 48.467 6.683
-9.351 48.109 6.764
-9.069 46.659 6.645
-9.067 46.649 6.685
-9.069 46.661 6.73
-8.827 45.416 6.674
-8.746 44.997 6.735
-8.733 44.931 6.766
-8.737 44.953 6.81
-9.374 48.228 7.701
-9.399 48.356 7.765
-9.646 49.631 8.332
-8.904 45.81 7.732
-9.331 48.007 8.147
-9.011 46.362 7.995
-9.01 46.357 8.037
-9.665 49.724 8.939
-9.663 49.714 8.983
-8.788 45.215 8.336
-8.964 46.12 9.267
-8.963 46.116 9.309
-8.963 46.115 9.351
-8.963 46.116 9.394
-9.274 47.494 -0.204
-9.269 47.466 -0.162
-9.263 47.438 -0.12
-9.263 47.437 -0.078
-9.254 47.391 -0.035
-9.25 47.373 0.007
-9.247 47.355 0.049
-9.243 47.336 0.091
-9.244 47.339 0.133
-9.237 47.306 0.175
-9.235 47.293 0.217
-9.232 47.28 0.259
-9.23 47.267 0.301
-9.227 47.255 0.343
-9.226 47.247 0.385
-9.224 47.238 0.427
-9.222 47.23 0.469
-9.221 47.222 0.511
-9.22 47.216 0.553
-9.219 47.212 0.594
-9.218 47.208 0.636
-9.218 47.205 0.678
-9.217 47.204 0.72
-9.218 47.205 0.762
-9.218 47.208 0.804
-9.221 47.22 0.847
-9.224 47.238 0.889
-9.207 47.148 2.23
-9.205 47.142 2.272
-9.262 47.434 2.371
-9.259 47.415 2.412
-9.264 47.44 2.455
-9.285 47.549 2.588
-9.261 47.426 2.624
-9.259 47.417 2.666
-9.261 47.427 2.708
-8.939 45.78 3.432
-8.935 45.76 3.471
-9.76 49.983 4.06
-9.762 49.991 4.105
-9.302 47.635 4.21
-9.298 47.614 4.251
-9.408 48.181 4.345
-9.289 47.57 4.46
-9.557 48.941 4.633
-9.55 48.906 4.673
-9.551 48.912 4.718
-9.562 48.967 4.899
-9.557 48.943 4.94
-9.555 48.934 4.983
-9.088 46.54 4.782
-9.557 48.944 5.073
-9.559 48.952 5.117
-9.56 48.96 5.162
-9.573 49.027 5.213
-9.598 49.152 5.271
-8.95 45.834 5.451
-8.944 45.806 5.489
-8.944 45.804 5.53
-9.177 46.999 5.886
-8.925 45.707 5.766
-9 46.09 5.939
-9.26 47.423 6.239
-8.873 45.439 6.102
-9.455 48.421 6.634
-9.457 48.431 6.679
-9.112 46.661 6.604
-9.106 46.634 6.642
-9.106 46.634 6.684
-9.112 46.662 6.731
-8.863 45.391 6.671
-8.784 44.985 6.734
-8.764 44.882 6.759
-8.748 44.798 6.787
-8.737 44.741 6.819
-9.235 47.293 7.38
-9.401 48.142 7.644
-9.448 48.386 7.771
-9.35 47.885 8.084
-9.298 47.616 8.082
-9.052 46.356 8.08
-9.048 46.337 8.119
-9.048 46.335 8.161
-9.703 49.688 8.798
-9.684 49.595 9.19
-9.68 49.575 9.232
-9.004 46.111 9.097
-9.316 47.49 -0.204
-9.311 47.463 -0.162
-9.306 47.437 -0.12
-9.303 47.421 -0.078
-9.297 47.39 -0.035
-9.293 47.37 0.007
-9.289 47.35 0.049
-9.285 47.331 0.091
-9.282 47.314 0.133
-9.279 47.298 0.175
-9.276 47.282 0.217
-9.273 47.267 0.259
-9.27 47.253 0.301
-9.267 47.239 0.343
-9.265 47.228 0.385
-9.263 47.217 0.427
-9.261 47.206 0.469
-9.259 47.196 0.51
-9.257 47.187 0.552
-9.255 47.18 0.594
-9.254 47.172 0.636
-9.253 47.166 0.678
-9.252 47.16 0.72
-9.251 47.155 0.762
-9.25 47.153 0.804
-9.25 47.151 0.845
-9.25 47.15 0.887
-9.25 47.152 0.929
-9.251 47.157 0.971
-9.254 47.172 1.014
-9.26 47.205 1.056
-9.54 48.63 1.521
-9.247 47.137 2.188
-9.247 47.136 2.23
-9.299 47.399 2.411
-9.298 47.397 2.454
-9.305 47.434 2.582
-9.302 47.416 2.624
-9.305 47.43 2.667
-9.65 49.19 2.897
-9.515 48.504 2.9
-9.301 47.412 3.301
-8.992 45.839 3.314
-9.166 46.723 3.67
-9.341 47.614 3.783
-9.485 48.349 3.928
-9.715 49.52 4.333
-9.711 49.501 4.376
-9.336 47.588 4.25
-9.331 47.565 4.29
-9.328 47.552 4.417
-9.597 48.919 4.632
-9.589 48.881 4.672
-9.59 48.885 4.716
-9.137 46.574 4.744
-9.167 46.73 4.802
-9.607 48.97 5.076
-9.606 48.965 5.12
-9.606 48.965 5.164
-9.609 48.983 5.209
-9.642 49.15 5.271
-9.166 46.722 5.095
-9.164 46.713 5.136
-8.986 45.807 5.49
-8.991 45.833 5.535
-9.136 46.573 5.876
-8.963 45.688 5.888
-8.92 45.47 6.066
-8.92 45.471 6.107
-8.897 45.352 6.132
-9.472 48.283 6.616
-9.444 48.14 6.64
-9.513 48.491 6.732
-9.148 46.632 6.601
-9.145 46.615 6.641
-9.143 46.606 6.682
-9.139 46.584 6.721
-8.897 45.355 6.626
-8.894 45.337 6.664
-8.831 45.016 6.699
-8.828 45 6.737
-8.756 44.636 6.845
-9.432 48.079 7.592
-8.721 44.455 7.141
-9.501 48.434 7.824
-9.368 47.755 8.02
-9.087 46.32 8.203
-9.085 46.311 8.243
-9.046 46.111 8.971
-9.361 47.497 -0.204
-9.356 47.472 -0.162
-9.351 47.447 -0.12
-9.346 47.422 -0.078
-9.342 47.399 -0.035
-9.337 47.378 0.007
-9.333 47.357 0.049
-9.329 47.336 0.091
-9.325 47.317 0.133
-9.322 47.299 0.175
-9.318 47.281 0.217
-9.315 47.264 0.259
-9.312 47.248 0.301
-9.309 47.233 0.343
-9.306 47.219 0.385
-9.303 47.205 0.427
-9.301 47.192 0.468
-9.298 47.18 0.51
-9.296 47.168 0.552
-9.294 47.159 0.594
-9.292 47.148 0.636
-9.29 47.139 0.678
-9.288 47.13 0.719
-9.287 47.122 0.761
-9.286 47.116 0.803
-9.284 47.109 0.845
-9.283 47.104 0.887
-9.282 47.099 0.928
-9.282 47.096 0.97
-9.282 47.096 1.012
-9.282 47.096 1.054
-9.282 47.099 1.096
-9.284 47.106 1.138
-9.287 47.124 1.181
-9.559 48.502 1.56
-9.286 47.116 2.187
-9.341 47.396 2.412
-9.337 47.375 2.453
-9.339 47.388 2.496
-9.36 47.493 2.544
-9.133 46.34 2.523
-9.126 46.308 2.563
-9.121 46.282 2.603
-9.116 46.257 2.642
-9.111 46.232 2.682
-9.107 46.211 2.722
-9.556 48.49 2.9
-9.33 47.342 3.296
-9.21 46.73 3.63
-9.839 49.924 4.057
-9.764 49.541 4.203
-9.759 49.518 4.245
-9.757 49.508 4.289
-9.757 49.505 4.333
-9.371 47.551 4.29
-9.368 47.532 4.331
-9.367 47.528 4.373
-9.367 47.53 4.416
-9.637 48.898 4.63
-9.628 48.856 4.67
-9.629 48.858 4.714
-9.185 46.605 4.706
-9.21 46.73 4.803
-9.212 46.744 4.888
-9.212 46.742 4.93
-9.658 49.004 5.213
-9.72 49.321 5.291
-9.78 49.623 5.457
-9.793 49.69 5.509
-9.989 50.683 5.71
-9.756 49.505 5.667
-9.298 47.18 5.486
-9.03 45.819 5.493
-9.036 45.849 5.538
-9.665 49.043 6.1
-9.176 46.561 5.876
-9.082 46.082 5.94
-8.968 45.504 6.03
-8.965 45.487 6.069
-8.921 45.265 6.121
-9.494 48.172 6.558
-9.492 48.163 6.601
-9.566 48.541 6.784
-9.194 46.651 6.562
-9.188 46.62 6.6
-9.186 46.613 6.641
-9.185 46.603 6.682
-9.175 46.553 6.717
-9.17 46.529 6.756
-8.93 45.312 6.621
-8.881 45.063 6.625
-8.876 45.039 6.663
-8.785 44.575 6.634
-8.781 44.553 6.672
-8.78 44.549 6.711
-8.777 44.535 6.831
-8.78 44.548 6.873
-8.776 44.528 6.911
-9.461 48.005 7.538
-8.767 44.485 7.066
-9.092 46.134 7.412
-9.55 48.458 7.83
-9.381 47.597 7.995
-9.373 47.561 8.032
-9.757 49.506 8.406
-9.33 47.339 8.081
-9.124 46.295 8.327
-9.122 46.285 8.368
-9.121 46.279 8.409
-9.093 46.137 8.85
-9.09 46.125 8.89
-9.441 47.683 -0.205
-9.403 47.494 -0.162
-9.399 47.471 -0.12
-9.394 47.448 -0.078
-9.389 47.425 -0.035
-9.385 47.401 0.007
-9.38 47.377 0.049
-9.375 47.354 0.091
-9.371 47.333 0.133
-9.367 47.312 0.175
-9.363 47.291 0.217
-9.359 47.271 0.259
-9.355 47.252 0.301
-9.352 47.235 0.343
-9.349 47.219 0.385
-9.345 47.202 0.427
-9.342 47.187 0.468
-9.339 47.172 0.51
-9.337 47.16 0.552
-9.334 47.146 0.594
-9.332 47.134 0.636
-9.329 47.122 0.677
-9.327 47.11 0.719
-9.325 47.101 0.761
-9.323 47.091 0.803
-9.321 47.081 0.844
-9.32 47.072 0.886
-9.318 47.064 0.928
-9.317 47.058 0.97
-9.316 47.051 1.011
-9.314 47.046 1.053
-9.314 47.041 1.095
-9.313 47.038 1.137
-9.313 47.04 1.179
-9.314 47.043 1.221
-9.315 47.051 1.263
-9.32 47.071 1.305
-9.567 48.322 1.598
-9.325 47.097 2.145
-9.198 46.458 2.323
-9.192 46.426 2.363
-9.187 46.402 2.403
-9.376 47.357 2.495
-9.396 47.458 2.542
-9.394 47.446 2.584
-9.598 48.477 2.9
-9.712 49.056 2.978
-9.266 46.799 2.883
-9.336 47.156 2.989
-9.379 47.374 3.214
-9.362 47.285 3.335
-9.388 47.419 3.599
-9.402 47.487 3.647
-9.572 48.348 3.929
-9.813 49.565 4.117
-9.807 49.534 4.159
-9.809 49.542 4.204
-9.804 49.517 4.246
-9.822 49.611 4.343
-9.404 47.5 4.371
-9.404 47.497 4.413
-9.677 48.879 4.629
-9.668 48.83 4.669
-9.668 48.832 4.713
-9.239 46.662 4.671
-9.434 47.651 4.855
-9.251 46.725 4.803
-9.702 49.003 5.169
-9.101 45.97 5.18
-9.074 45.832 5.495
-9.218 46.556 5.876
-9.128 46.103 5.944
-9.017 45.544 5.995
-9.011 45.511 6.032
-9.526 48.112 6.551
-9.232 46.631 6.561
-9.229 46.614 6.6
-9.229 46.616 6.643
-9.212 46.527 6.757
-8.93 45.104 6.591
-8.923 45.071 6.627
-9.2 46.466 6.875
-9.167 46.302 7.187
-8.812 44.507 6.949
-8.808 44.488 6.987
-8.807 44.482 7.026
-9.147 46.198 7.34
-9.603 48.504 7.883
-9.408 47.52 7.983
-9.41 47.526 8.028
-8.996 45.436 8.215
-9.156 46.246 8.532
-9.154 46.236 8.572
-9.152 46.225 8.613
-9.149 46.208 8.652
-9.145 46.192 8.692
-9.143 46.178 8.731
-9.14 46.166 8.772
-9.455 47.537 -0.162
-9.451 47.518 -0.12
-9.447 47.499 -0.078
-9.444 47.481 -0.035
-9.438 47.453 0.007
-9.432 47.423 0.049
-9.427 47.395 0.091
-9.421 47.368 0.133
-9.416 47.343 0.175
-9.411 47.317 0.217
-9.406 47.292 0.259
-9.402 47.269 0.301
-9.398 47.25 0.343
-9.394 47.229 0.385
-9.39 47.21 0.427
-9.386 47.191 0.469
-9.383 47.174 0.51
-9.38 47.159 0.552
-9.376 47.143 0.594
-9.373 47.128 0.636
-9.371 47.113 0.677
-9.368 47.1 0.719
-9.366 47.088 0.761
-9.363 47.075 0.803
-9.361 47.063 0.844
-9.358 47.052 0.886
-9.356 47.041 0.928
-9.354 47.032 0.969
-9.352 47.022 1.011
-9.35 47.012 1.053
-9.349 47.004 1.094
-9.348 46.998 1.136
-9.346 46.992 1.178
-9.345 46.987 1.219
-9.345 46.984 1.261
-9.345 46.983 1.303
-9.579 48.16 1.636
-9.557 48.051 1.675
-9.536 47.945 1.714
-9.522 47.877 1.754
-9.509 47.809 1.794
-9.501 47.77 1.835
-9.5 47.766 1.878
-9.364 47.079 2.103
-9.255 46.532 2.203
-9.247 46.494 2.242
-9.244 46.478 2.283
-9.424 47.384 2.454
-9.416 47.342 2.494
-9.413 47.326 2.536
-9.426 47.393 2.581
-9.442 47.47 2.628
-9.449 47.507 2.672
-9.453 47.529 2.716
-9.459 47.558 2.76
-9.588 48.207 2.841
-9.639 48.465 2.899
-9.737 48.953 3.016
-9.306 46.786 2.924
-9.375 47.133 3.03
-9.332 46.918 3.184
-9.396 47.241 3.375
-9.394 47.232 3.417
-9.401 47.269 3.504
-9.46 47.562 3.653
-9.622 48.378 3.889
-9.868 49.612 4.033
-9.617 48.352 3.973
-9.857 49.558 4.117
-9.857 49.559 4.161
-9.443 47.478 4.37
-9.442 47.471 4.412
-9.721 48.874 4.63
-9.71 48.818 4.668
-9.709 48.817 4.712
-9.291 46.714 4.635
-9.467 47.6 4.765
-9.464 47.581 4.806
-9.473 47.631 4.854
-9.291 46.714 4.803
-9.749 49.015 5.172
-9.755 49.044 5.219
-9.366 47.093 5.181
-9.828 49.413 5.614
-9.118 45.844 5.498
-9.124 45.876 5.543
-9.26 46.555 5.835
-9.327 46.896 5.962
-9.058 45.54 5.996
-9.146 45.986 6.096
-9.557 48.052 6.501
-9.563 48.078 6.548
-9.278 46.649 6.522
-9.272 46.619 6.56
-9.271 46.612 6.601
-9.274 46.628 6.646
-9.672 48.631 6.976
-9.122 45.862 6.62
-8.998 45.242 6.572
-8.983 45.166 6.602
-9.241 46.463 6.833
-8.943 44.963 6.654
-9.231 46.414 6.91
-9.228 46.398 6.95
-9.227 46.391 6.991
-8.855 44.519 6.952
-9.2 46.255 7.266
-8.845 44.473 7.067
-8.844 44.466 7.106
-9.652 48.53 7.888
-9.662 48.578 7.94
-9.447 47.498 7.981
-9.328 46.9 8.009
-9.061 45.557 8.155
-9.05 45.502 8.187
-9.045 45.477 8.224
-9.043 45.466 8.264
-9.468 47.385 0.218
-9.459 47.344 0.26
-9.453 47.31 0.301
-9.447 47.284 0.343
-9.442 47.256 0.385
-9.437 47.231 0.427
-9.432 47.208 0.469
-9.428 47.187 0.511
-9.424 47.169 0.552
-9.421 47.15 0.594
-9.417 47.131 0.636
-9.413 47.114 0.678
-9.41 47.098 0.719
-9.407 47.084 0.761
-9.404 47.068 0.803
-9.401 47.054 0.844
-9.399 47.04 0.886
-9.396 47.027 0.928
-9.394 47.015 0.969
-9.391 47.002 1.011
-9.389 46.99 1.052
-9.386 46.979 1.094
-9.385 46.969 1.135
-9.382 46.959 1.177
-9.381 46.95 1.219
-9.379 46.942 1.26
-9.527 47.683 1.917
-9.512 47.608 1.957
-9.403 47.062 2.102
-9.306 46.576 2.122
-9.299 46.543 2.162
-9.452 47.309 2.493
-9.448 47.287 2.534
-9.452 47.305 2.577
-9.488 47.489 2.63
-9.491 47.5 2.673
-9.493 47.513 2.716
-9.496 47.526 2.759
-9.498 47.535 2.802
-9.498 47.539 2.845
-9.499 47.543 2.887
-9.5 47.547 2.93
-9.501 47.551 2.973
-9.502 47.558 3.016
-9.348 46.787 3.008
-9.505 47.574 3.102
-9.507 47.584 3.145
-9.51 47.597 3.188
-9.425 47.171 3.455
-9.341 46.751 3.55
-9.506 47.579 3.655
-9.923 49.663 3.993
-9.914 49.619 4.034
-10.057 50.332 4.227
-9.394 47.016 4.328
-9.48 47.445 4.41
-9.753 48.811 4.668
-9.752 48.807 4.712
-9.505 47.57 4.678
-9.335 46.723 4.637
-9.499 47.541 4.76
-9.5 47.548 4.804
-9.503 47.562 4.848
-9.332 46.705 4.803
-9.526 47.68 4.946
-9.791 49.002 5.171
-10.02 50.149 5.382
-9.409 47.09 5.139
-9.394 47.018 5.512
-9.162 45.856 5.5
-9.164 45.865 5.542
-9.303 46.56 5.795
-9.785 48.972 6.139
-9.364 46.868 6.002
-9.217 46.131 5.991
-9.105 45.572 5.96
-9.196 46.026 6.103
-9.204 46.064 6.149
-9.589 47.994 6.45
-9.591 48.004 6.495
-9.186 45.978 6.429
-9.313 46.612 6.56
-9.314 46.616 6.603
-9.743 48.761 6.951
-9.041 45.252 6.574
-9.04 45.246 6.614
-8.971 44.901 6.686
-9.27 46.397 6.951
-9.264 46.367 6.989
-9.262 46.355 7.029
-9.263 46.359 7.072
-9.42 47.145 7.235
-9.252 46.305 7.19
-9.542 47.757 7.503
-8.879 44.442 7.184
-8.878 44.433 7.224
-9.719 48.643 7.997
-9.49 47.499 7.939
-9.488 47.487 7.98
-9.372 46.907 7.969
-9.121 45.653 8.09
-9.076 45.427 8.384
-9.075 45.422 8.424
-9.196 46.026 9.898
-9.501 47.338 0.386
-9.491 47.285 0.428
-9.483 47.249 0.469
-9.477 47.219 0.511
-9.472 47.195 0.553
-9.468 47.17 0.595
-9.463 47.148 0.636
-9.459 47.126 0.678
-9.455 47.107 0.72
-9.451 47.089 0.761
-9.448 47.071 0.803
-9.444 47.054 0.844
-9.441 47.037 0.886
-9.438 47.023 0.928
-9.435 47.007 0.969
-9.432 46.991 1.011
-9.429 46.977 1.052
-9.426 46.963 1.094
-9.423 46.95 1.135
-9.421 46.937 1.177
-9.538 47.52 1.996
-9.44 47.031 2.059
-9.351 46.589 2.081
-9.348 46.577 2.122
-9.49 47.281 2.492
-9.484 47.25 2.532
-9.485 47.258 2.575
-9.74 48.527 2.774
-9.503 47.349 2.791
-9.776 48.707 2.958
-9.551 47.586 3.103
-9.391 46.788 3.093
-9.44 47.035 3.151
-9.554 47.6 3.231
-9.465 47.159 3.455
-9.459 47.13 3.495
-9.385 46.758 3.509
-9.455 47.107 3.662
-9.454 47.105 3.704
-10.046 50.054 3.98
-9.572 47.692 3.835
-10.105 50.347 4.229
-10.113 50.385 4.277
-9.435 47.01 4.244
-9.434 47.005 4.285
-9.522 47.441 4.368
-9.523 47.444 4.411
-9.412 46.891 4.486
-9.794 48.798 4.712
-9.534 47.504 4.629
-9.534 47.501 4.672
-9.38 46.733 4.638
-9.538 47.521 4.759
-9.542 47.541 4.804
-9.549 47.574 4.85
-9.373 46.698 4.803
-9.563 47.647 4.943
-9.559 47.628 4.984
-9.557 47.617 5.026
-9.427 46.968 5.507
-9.207 45.872 5.503
-9.206 45.867 5.544
-9.72 48.429 5.941
-9.689 48.276 5.965
-9.624 47.95 5.969
-9.401 46.838 5.999
-9.153 45.606 5.924
-9.151 45.594 5.964
-9.254 46.106 6.114
-9.247 46.071 6.151
-9.248 46.074 6.193
-9.633 47.992 6.495
-9.374 46.706 6.405
-9.365 46.658 6.441
-9.36 46.634 6.48
-9.357 46.618 6.52
-9.355 46.611 6.561
-9.359 46.628 6.606
-9.812 48.889 6.971
-9.095 45.315 6.543
-9.087 45.273 6.578
-9.755 48.6 7.239
-9.001 44.847 6.72
-9.302 46.345 7.071
-9.296 46.315 7.109
-8.98 44.743 6.908
-9.3 46.335 7.238
-9.572 47.692 7.494
-9.561 47.638 7.529
-8.912 44.4 7.341
-8.91 44.393 7.381
-9.529 47.475 7.936
-9.159 45.634 7.879
-9.188 45.778 8.03
-9.108 45.38 8.543
-9.531 47.272 0.554
-9.521 47.221 0.595
-9.514 47.186 0.637
-9.508 47.157 0.678
-9.502 47.131 0.72
-9.498 47.109 0.762
-9.493 47.086 0.803
-9.489 47.065 0.845
-9.485 47.045 0.886
-9.481 47.027 0.928
-9.478 47.008 0.969
-9.474 46.99 1.011
-9.47 46.972 1.052
-9.467 46.957 1.094
-9.722 48.22 1.897
-9.478 47.01 2.017
-9.398 46.614 2.041
-9.573 47.482 2.122
-9.574 47.485 2.164
-9.579 47.509 2.377
-9.58 47.517 2.42
-9.528 47.257 2.491
-9.519 47.213 2.531
-9.52 47.217 2.573
-9.534 47.288 2.619
-9.837 48.79 2.833
-9.77 48.457 2.857
-9.788 48.546 2.906
-9.717 48.194 2.928
-9.691 48.064 2.963
-9.685 48.035 3.004
-9.433 46.787 3.177
-9.435 46.796 3.219
-9.601 47.622 3.361
-9.429 46.766 3.468
-9.494 47.091 3.534
-9.497 47.104 3.578
-10.077 49.98 3.886
-10.052 49.855 3.965
-10.045 49.821 4.186
-10.042 49.809 4.229
-10.041 49.804 4.273
-9.564 47.439 4.368
-9.56 47.416 4.409
-9.57 47.465 4.541
-9.569 47.461 4.584
-9.57 47.467 4.627
-9.433 46.789 4.603
-9.424 46.742 4.64
-9.583 47.529 4.761
-9.414 46.694 4.761
-9.414 46.693 4.803
-9.431 46.775 4.854
-9.874 48.974 5.17
-9.597 47.601 5.111
-9.318 46.218 5.17
-9.947 49.334 5.563
-9.873 48.967 5.787
-9.861 48.908 5.824
-9.254 45.899 5.507
-9.249 45.873 5.545
-9.797 48.592 5.918
-9.388 46.562 5.755
-9.631 47.769 5.947
-9.2 45.631 5.887
-9.198 45.619 5.927
-9.309 46.17 6.04
-9.301 46.131 6.077
-9.298 46.116 6.117
-9.417 46.707 6.237
-9.414 46.694 6.278
-9.412 46.68 6.318
-9.038 44.827 6.108
-9.402 46.635 6.397
-9.399 46.62 6.437
-9.397 46.608 6.477
-9.398 46.611 6.52
-9.398 46.615 6.563
-9.894 49.074 6.998
-9.137 45.318 6.545
-9.134 45.304 6.584
-9.494 47.09 7.229
-9.337 46.309 7.151
-9.013 44.704 6.944
-9.3 46.128 7.207
-9.29 46.079 7.242
-9.283 46.041 7.278
-9.572 47.475 7.938
-9.866 48.934 8.226
-8.944 44.361 7.498
-8.942 44.35 7.537
-9.906 49.135 8.395
-9.243 45.846 8.001
-9.143 45.346 8.664
-9.14 45.333 8.703
-9.558 47.195 0.721
-9.55 47.156 0.763
-9.543 47.122 0.804
-9.538 47.093 0.845
-9.532 47.067 0.887
-9.528 47.045 0.928
-9.523 47.021 0.97
-9.519 46.999 1.011
-9.514 46.978 1.053
-9.451 46.665 1.961
-9.446 46.641 2.001
-9.559 47.201 2.488
-9.554 47.172 2.529
-9.556 47.185 2.572
-9.85 48.636 2.868
-9.81 48.437 2.9
-9.818 48.476 2.945
-9.722 48.003 3.002
-9.711 47.948 3.042
-9.703 47.908 3.082
-9.699 47.888 3.124
-9.943 49.097 3.246
-9.661 47.702 3.282
-9.478 46.8 3.262
-9.479 46.804 3.304
-9.478 46.798 3.346
-9.474 46.78 3.386
-9.474 46.781 3.428
-9.53 47.055 3.49
-9.535 47.081 3.534
-9.662 47.709 3.624
-10.107 49.903 3.88
-10.1 49.871 3.922
-9.791 48.344 4.106
-10.232 50.52 4.381
-9.93 49.033 4.384
-9.603 47.416 4.41
-9.605 47.428 4.453
-9.604 47.423 4.495
-9.605 47.428 4.538
-9.608 47.439 4.582
-9.611 47.457 4.627
-9.617 47.485 4.672
-9.175 45.301 4.498
-9.467 46.747 4.683
-9.864 48.704 4.923
-9.453 46.674 4.76
-9.662 47.706 4.908
-9.449 46.656 4.842
-9.706 47.927 5.017
-9.541 47.109 4.974
-9.765 48.218 5.134
-9.795 48.365 5.194
-9.638 47.591 5.196
-9.293 45.884 5.548
-9.294 45.89 5.59
-9.43 46.564 5.714
-9.64 47.598 5.884
-9.644 47.617 5.929
-9.649 47.643 5.976
-9.652 47.66 6.021
-9.266 45.754 5.821
-9.243 45.639 5.848
-9.241 45.628 5.888
-9.232 45.585 5.923
-9.232 45.585 5.965
-9.454 46.681 6.15
-9.452 46.673 6.192
-9.45 46.66 6.232
-9.447 46.648 6.273
-9.445 46.636 6.313
-9.443 46.625 6.354
-9.441 46.614 6.395
-9.439 46.606 6.436
-9.438 46.601 6.478
-9.437 46.598 6.52
-9.445 46.637 6.567
-9.449 46.656 6.612
-9.459 46.705 6.662
-9.182 45.336 6.549
-9.488 46.847 7.15
-9.526 47.034 7.222
-9.368 46.258 7.145
-9.537 47.091 7.316
-9.544 47.125 7.364
-9.017 44.522 6.998
-9.59 47.353 7.53
-9.305 45.947 7.348
-9.297 45.906 7.383
-9.29 45.87 7.419
-9.285 45.846 7.457
-9.27 45.772 7.529
-9.62 47.499 7.9
-9.616 47.48 7.94
-8.973 44.304 7.693
-9.174 45.297 8.823
-9.311 45.972 10.105
-9.587 47.124 0.888
-9.579 47.088 0.929
-9.572 47.054 0.971
-9.566 47.025 1.012
-9.6 47.192 1.773
-9.605 47.217 1.816
-9.612 47.246 1.859
-9.619 47.282 1.903
-9.497 46.686 1.92
-9.494 46.67 1.961
-9.554 46.963 2.015
-10.067 49.487 2.168
-9.592 47.149 2.486
-9.589 47.134 2.528
-9.593 47.156 2.571
-9.932 48.822 2.836
-9.868 48.509 2.948
-9.74 47.876 3.123
-9.733 47.842 3.164
-9.727 47.812 3.205
-9.721 47.786 3.246
-9.713 47.748 3.286
-9.534 46.864 3.267
-9.524 46.815 3.305
-9.566 47.024 3.489
-10.163 49.956 3.84
-10.153 49.91 3.881
-9.835 48.344 4.15
-10.3 50.628 4.482
-9.649 47.429 4.369
-9.64 47.384 4.407
-9.64 47.389 4.45
-9.643 47.399 4.494
-9.234 45.393 4.344
-9.651 47.443 4.583
-9.918 48.752 4.754
-9.914 48.734 4.796
-9.911 48.717 4.838
-9.492 46.66 4.676
-9.492 46.661 4.718
-9.728 47.819 4.878
-9.511 46.751 4.811
-9.481 46.605 4.838
-9.485 46.622 4.881
-9.49 46.647 4.926
-9.492 46.658 4.969
-9.495 46.674 5.013
-9.863 48.483 5.251
-10.007 49.189 5.372
-10.011 49.21 5.418
-9.42 46.306 5.14
-10.02 49.255 5.512
-10.044 49.373 5.659
-9.498 46.69 5.435
-9.496 46.678 5.476
-9.495 46.672 5.517
-9.498 46.691 5.562
-9.496 46.678 5.602
-9.339 45.906 5.551
-9.334 45.883 5.59
-9.336 45.893 5.633
-9.674 47.555 5.88
-9.329 45.858 5.711
-9.319 45.807 5.746
-9.311 45.77 5.783
-9.271 45.573 5.799
-9.29 45.668 5.853
-9.492 46.661 6.022
-9.384 46.13 5.995
-9.25 45.471 5.951
-9.233 45.386 5.981
-9.361 46.014 6.105
-9.357 45.996 6.144
-9.356 45.992 6.186
-9.484 46.62 6.312
-9.483 46.615 6.354
-9.482 46.611 6.396
-9.482 46.611 6.438
-9.483 46.614 6.481
-9.485 46.624 6.524
-9.49 46.651 6.57
-9.491 46.653 6.613
-9.494 46.669 6.658
-9.248 45.458 6.526
-9.23 45.373 6.555
-9.513 46.761 6.798
-10.119 49.743 7.277
-9.238 45.411 6.726
-9.535 46.868 7.112
-9.561 46.996 7.174
-9.566 47.023 7.221
-9.398 46.195 7.136
-9.436 46.385 7.208
-9.491 46.656 7.292
-9.058 44.524 7
-9.592 47.151 7.456
-9.598 47.178 7.503
-9.604 47.207 7.551
-9.316 45.795 7.534
-9.313 45.78 7.573
-9.658 47.476 7.897
-9.543 46.909 7.846
-9.705 47.705 8.11
-9.286 45.646 7.802
-9.363 46.024 7.908
-9.355 45.987 7.944
-9.242 45.43 8.14
-9.208 45.264 8.944
-9.792 48.132 9.599
-9.349 45.957 10.189
-9.544 46.705 1.921
-9.586 46.909 1.972
-9.682 47.382 2.034
-9.625 47.103 2.484
-9.624 47.098 2.526
-9.631 47.133 2.57
-9.569 46.827 3.265
-9.601 46.984 3.444
-9.686 47.403 3.857
-9.924 48.563 3.995
-10.36 50.7 4.535
-9.299 45.505 4.111
-9.296 45.49 4.15
-9.68 47.37 4.364
-9.676 47.353 4.405
-9.678 47.362 4.449
-9.686 47.402 4.495
-9.536 46.668 4.467
-9.528 46.628 4.505
-9.524 46.606 4.545
-9.521 46.591 4.586
-9.536 46.667 4.635
-9.527 46.621 4.672
-9.521 46.594 4.712
-9.548 46.724 4.767
-9.526 46.617 4.798
-9.518 46.579 4.836
-9.52 46.587 4.879
-9.522 46.597 4.922
-9.523 46.601 4.964
-9.523 46.605 5.006
-9.525 46.611 5.049
-9.526 46.615 5.091
-9.527 46.621 5.134
-9.528 46.63 5.177
-9.531 46.643 5.221
-9.528 46.627 5.261
-9.531 46.642 5.305
-9.524 46.61 5.343
-9.524 46.609 5.385
-9.524 46.609 5.427
-9.525 46.61 5.469
-9.524 46.606 5.511
-9.54 46.686 5.562
-9.524 46.608 5.595
-9.521 46.594 5.636
-9.379 45.898 5.593
-9.376 45.883 5.632
-9.373 45.867 5.672
-9.366 45.834 5.709
-9.361 45.81 5.748
-9.359 45.8 5.788
-9.533 46.654 5.98
-9.435 46.171 5.96
-9.426 46.127 5.996
-9.307 45.547 5.962
-9.257 45.299 5.97
-9.399 45.995 6.104
-9.393 45.965 6.141
-9.387 45.937 6.179
-9.165 44.853 6.074
-9.376 45.885 6.256
-9.371 45.861 6.294
-9.367 45.841 6.333
-9.537 46.671 6.617
-9.538 46.674 6.66
-9.298 45.504 6.534
-9.287 45.446 6.567
-9.547 46.72 6.793
-9.552 46.743 6.839
-9.561 46.789 6.889
-9.566 46.815 6.935
-9.572 46.841 6.981
-9.577 46.867 7.028
-9.581 46.889 7.074
-9.59 46.931 7.123
-9.601 46.987 7.174
-9.542 46.697 7.172
-9.479 46.389 7.252
-9.483 46.409 7.297
-9.639 47.17 7.46
-9.642 47.185 7.506
-9.648 47.217 7.554
-9.661 47.281 7.607
-9.701 47.474 7.812
-9.7 47.471 7.854
-9.586 46.909 7.804
-9.346 45.738 7.651
-9.341 45.712 7.689
-9.337 45.693 7.727
-9.412 46.059 7.874
-9.306 45.539 8.035
-9.034 44.212 8.045
-9.824 48.075 9.59
-9.243 45.232 9.064
-9.388 45.942 10.274
-9.608 46.809 1.884
-9.619 46.866 1.928
-9.731 47.41 2.035
-9.931 48.386 2.293
-9.659 47.059 2.482
-9.66 47.063 2.525
-9.672 47.121 2.57
-9.985 48.648 3.001
-9.609 46.814 3.265
-9.811 47.802 3.376
-9.638 46.957 3.401
-9.638 46.959 3.443
-10.279 50.078 3.806
-9.363 45.617 3.835
-9.326 45.437 3.983
-9.724 47.375 4.323
-9.715 47.331 4.362
-9.714 47.328 4.404
-9.573 46.638 4.381
-9.567 46.609 4.421
-9.563 46.591 4.461
-9.56 46.578 4.501
-9.558 46.567 4.542
-9.556 46.56 4.583
-9.57 46.625 4.632
-9.564 46.597 4.671
-9.56 46.579 4.711
-9.558 46.568 4.752
-9.557 46.564 4.793
-9.558 46.565 4.835
-9.558 46.568 4.877
-9.559 46.571 4.92
-9.559 46.572 4.962
-9.559 46.573 5.004
-9.56 46.575 5.046
-9.56 46.575 5.088
-9.52 46.381 5.109
-9.56 46.577 5.172
-9.561 46.584 5.215
-9.56 46.574 5.256
-9.561 46.583 5.299
-9.558 46.566 5.339
-9.559 46.57 5.381
-9.56 46.575 5.424
-9.561 46.581 5.467
-9.56 46.579 5.508
-9.559 46.574 5.55
-9.564 46.597 5.595
-9.427 45.926 5.556
-9.421 45.898 5.594
-9.417 45.881 5.633
-9.416 45.876 5.674
-9.548 46.52 5.796
-9.535 46.455 5.83
-9.522 46.391 5.864
-9.509 46.328 5.897
-9.493 46.249 5.929
-9.479 46.183 5.963
-9.347 45.538 5.921
-9.569 46.619 6.103
-9.59 46.724 6.159
-9.268 45.156 5.994
-9.585 46.7 6.241
-9.432 45.953 6.183
-9.423 45.911 6.219
-9.372 45.659 6.226
-9.409 45.841 6.292
-9.402 45.808 6.329
-9.395 45.771 6.366
-9.387 45.734 6.402
-9.38 45.698 6.438
-9.371 45.658 6.474
-9.364 45.62 6.51
-9.345 45.53 6.539
-9.341 45.508 6.577
-9.59 46.724 6.795
-9.593 46.736 6.839
-9.596 46.754 6.885
-9.606 46.801 6.934
-9.611 46.827 6.981
-9.617 46.853 7.027
-9.625 46.892 7.076
-9.652 47.026 7.224
-9.523 46.395 7.297
-9.519 46.376 7.336
-9.517 46.367 7.377
-9.708 47.298 7.568
-9.708 47.296 7.611
-9.718 47.344 7.662
-9.726 47.386 7.712
-9.735 47.429 7.762
-9.743 47.467 7.812
-9.629 46.915 7.764
-9.457 46.077 7.836
-9.368 45.642 7.804
-9.064 44.162 8.199
-9.277 45.199 9.185
-9.427 45.93 10.359
-9.637 46.746 1.924
-9.641 46.764 1.966
-9.646 46.79 2.009
-10.163 49.296 2.205
-9.867 47.86 2.269
-9.7 47.049 2.44
-9.693 47.016 2.481
-9.695 47.028 2.523
-9.649 46.804 3.265
-9.857 47.81 3.42
-9.672 46.912 3.398
-9.929 48.16 3.661
-9.453 45.851 3.609
-9.443 45.804 3.646
-9.435 45.767 3.684
-9.617 46.647 4.257
-9.61 46.615 4.296
-9.606 46.594 4.336
-9.603 46.579 4.377
-9.6 46.566 4.417
-9.598 46.557 4.458
-9.597 46.55 4.5
-9.596 46.545 4.541
-9.595 46.542 4.582
-9.607 46.6 4.63
-9.602 46.577 4.67
-9.601 46.57 4.711
-9.6 46.566 4.752
-9.6 46.566 4.794
-9.599 46.562 4.836
-9.599 46.56 4.878
-9.599 46.559 4.919
-9.598 46.558 4.961
-9.598 46.557 5.003
-9.598 46.556 5.045
-9.569 46.413 5.071
-9.597 46.552 5.128
-9.6 46.564 5.172
-9.598 46.557 5.213
-9.597 46.55 5.254
-9.595 46.543 5.295
-9.596 46.547 5.338
-9.597 46.551 5.38
-9.599 46.559 5.423
-9.601 46.568 5.466
-9.6 46.567 5.508
-9.6 46.563 5.55
-9.606 46.592 5.595
-9.461 45.889 5.552
-9.46 45.884 5.593
-9.464 45.906 5.637
-9.596 46.545 5.758
-9.585 46.49 5.793
-9.571 46.426 5.827
-9.558 46.362 5.861
-9.545 46.297 5.895
-9.535 46.249 5.93
-9.528 46.215 5.968
-9.385 45.521 5.919
-9.584 46.488 6.087
-9.296 45.089 5.986
-9.759 47.337 6.327
-9.216 44.7 6.218
-9.43 45.743 6.404
-9.421 45.697 6.44
-9.411 45.651 6.474
-9.402 45.606 6.509
-9.393 45.56 6.544
-9.392 45.554 6.585
-9.641 46.765 6.845
-9.637 46.745 6.884
-9.637 46.746 6.927
-9.642 46.77 7.101
-9.696 47.029 7.269
-9.862 47.836 7.568
-9.555 46.346 7.417
-9.55 46.324 7.456
-9.545 46.3 7.494
-9.54 46.277 7.533
-9.536 46.254 7.571
-9.531 46.231 7.61
-9.525 46.203 7.647
-9.52 46.175 7.685
-9.514 46.148 7.723
-9.509 46.122 7.761
-9.508 46.117 7.802
-9.499 46.075 7.837
-9.493 46.047 7.874
-9.408 45.633 7.845
-9.408 45.633 7.887
-9.403 45.612 7.925
-9.099 44.137 8.318
-9.312 45.167 9.305
-9.674 46.717 2.006
-9.685 46.771 2.092
-9.869 47.66 2.174
-9.885 47.739 2.221
-10.056 48.563 2.302
-9.731 46.995 2.438
-9.727 46.975 2.479
-9.731 46.994 2.522
-9.71 46.89 2.726
-10.113 48.837 3.057
-9.693 46.812 3.224
-9.691 46.801 3.265
-9.687 46.78 3.305
-9.68 46.747 3.345
-9.694 46.814 3.392
-9.673 46.715 3.426
-9.672 46.708 3.468
-9.53 46.021 3.458
-9.52 45.975 3.496
-9.669 46.692 3.592
-9.669 46.692 3.634
-9.431 45.544 3.83
-9.66 46.65 4.133
-9.653 46.617 4.172
-9.649 46.597 4.212
-9.646 46.581 4.252
-9.643 46.568 4.293
-9.641 46.557 4.334
-9.639 46.549 4.375
-9.638 46.542 4.416
-9.637 46.537 4.457
-9.636 46.535 4.499
-9.636 46.535 4.541
-9.636 46.536 4.583
-9.637 46.539 4.625
-9.639 46.548 4.668
-9.642 46.564 4.711
-9.643 46.571 4.754
-9.646 46.581 4.797
-9.643 46.57 4.838
-9.648 46.593 4.882
-9.641 46.559 4.92
-9.64 46.556 4.962
-9.64 46.554 5.004
-9.621 46.462 5.036
-9.638 46.545 5.086
-9.637 46.541 5.128
-9.64 46.552 5.171
-9.638 46.546 5.213
-9.637 46.541 5.254
-9.636 46.535 5.295
-9.642 46.564 5.341
-9.638 46.546 5.38
-9.641 46.558 5.424
-9.643 46.57 5.467
-9.644 46.571 5.51
-9.643 46.567 5.551
-9.501 45.881 5.511
-9.499 45.871 5.551
-9.502 45.885 5.594
-9.645 46.579 5.721
-9.641 46.56 5.761
-9.633 46.519 5.798
-9.62 46.459 5.832
-9.607 46.394 5.866
-9.498 45.869 5.841
-9.57 46.215 5.927
-9.568 46.206 5.968
-9.421 45.496 5.917
-9.617 46.443 6.082
-9.61 46.41 6.12
-9.803 47.343 6.329
-9.295 44.887 6.041
-9.284 44.835 6.075
-9.278 44.805 6.112
-9.425 45.515 6.663
-9.422 45.503 6.703
-9.679 46.74 6.928
-9.678 46.738 6.97
-9.683 46.762 7.016
-9.685 46.772 7.06
-9.688 46.785 7.105
-9.687 46.783 7.147
-9.687 46.782 7.189
-9.688 46.783 7.232
-9.688 46.786 7.275
-9.515 45.952 7.188
-9.941 48.005 7.596
-9.693 46.812 7.493
-9.694 46.816 7.536
-9.697 46.829 7.581
-9.702 46.852 7.628
-9.853 47.581 7.833
-9.723 46.955 7.816
-9.723 46.956 7.859
-9.73 46.989 7.908
-9.508 45.916 8.064
-9.505 45.901 10.485
-9.708 46.678 2.005
-9.711 46.694 2.047
-9.714 46.707 2.09
-9.719 46.728 2.132
-9.727 46.769 2.176
-9.762 46.935 2.435
-9.762 46.935 2.477
-9.767 46.963 2.521
-9.731 46.79 3.097
-9.722 46.744 3.178
-9.721 46.738 3.219
-9.636 46.33 3.233
-9.625 46.277 3.27
-9.613 46.219 3.308
-9.602 46.168 3.345
-9.594 46.128 3.384
-9.702 46.648 3.464
-9.7 46.637 3.505
-9.698 46.627 3.546
-9.695 46.616 3.587
-9.702 46.65 3.631
-9.693 46.605 3.67
-9.693 46.604 3.711
-9.693 46.604 3.753
-9.716 46.718 3.804
-9.693 46.604 3.837
-9.694 46.61 3.879
-9.697 46.625 3.922
-9.7 46.64 4.007
-9.694 46.61 4.046
-9.69 46.59 4.086
-9.687 46.576 4.127
-9.685 46.565 4.168
-9.683 46.557 4.209
-9.681 46.549 4.25
-9.68 46.542 4.291
-9.679 46.537 4.332
-9.678 46.533 4.374
-9.677 46.53 4.416
-9.677 46.529 4.457
-9.678 46.531 4.499
-9.679 46.536 4.542
-9.68 46.542 4.584
-9.682 46.551 4.627
-9.684 46.56 4.67
-9.686 46.57 4.713
-9.688 46.583 4.756
-9.694 46.61 4.801
-9.691 46.595 4.841
-9.688 46.581 4.881
-9.687 46.575 4.923
-9.685 46.569 4.964
-9.685 46.564 5.006
-9.683 46.557 5.047
-9.681 46.55 5.088
-9.68 46.543 5.129
-9.682 46.554 5.172
-9.682 46.55 5.214
-9.681 46.546 5.255
-9.68 46.543 5.297
-9.688 46.582 5.343
-9.684 46.56 5.383
-9.687 46.576 5.427
-9.691 46.595 5.471
-9.692 46.598 5.514
-9.541 45.874 5.47
-9.538 45.86 5.509
-9.54 45.867 5.552
-9.687 46.577 5.68
-9.683 46.557 5.719
-9.682 46.553 5.761
-9.685 46.565 5.804
-9.687 46.576 5.848
-9.685 46.568 5.889
-9.681 46.548 5.929
-9.603 46.172 5.923
-9.599 46.153 5.962
-9.457 45.472 5.915
-9.643 46.365 6.115
-9.638 46.34 6.154
-9.701 46.643 6.237
-9.696 46.62 6.276
-9.691 46.597 6.315
-9.309 44.758 6.147
-9.453 45.45 6.779
-9.718 46.727 7.012
-9.744 46.851 7.116
-9.731 46.788 7.277
-9.729 46.779 7.318
-9.728 46.775 7.36
-9.728 46.772 7.402
-9.729 46.778 7.446
-9.734 46.8 7.492
-9.906 47.627 7.842
-9.774 46.997 7.911
-9.778 47.012 7.956
-9.481 45.587 7.924
-9.536 45.849 8.18
-9.748 46.664 2.046
-9.749 46.669 2.088
-9.751 46.679 2.13
-9.753 46.69 2.173
-9.756 46.701 2.215
-9.759 46.716 2.257
-9.764 46.74 2.3
-9.789 46.864 2.348
-9.791 46.873 2.391
-9.794 46.887 2.433
-9.798 46.905 2.476
-9.806 46.945 2.52
-9.752 46.686 2.84
-9.745 46.648 2.88
-9.737 46.613 2.919
-9.73 46.58 2.959
-9.724 46.55 2.999
-9.717 46.517 3.038
-9.71 46.483 3.077
-9.703 46.451 3.117
-9.753 46.687 3.175
-9.752 46.686 3.216
-9.753 46.688 3.258
-9.749 46.672 3.299
-9.746 46.656 3.34
-9.743 46.642 3.38
-9.741 46.63 3.421
-9.738 46.618 3.462
-9.736 46.606 3.503
-9.733 46.594 3.544
-9.731 46.582 3.585
-9.746 46.654 3.632
-9.728 46.569 3.667
-9.727 46.567 3.709
-9.727 46.564 3.75
-9.726 46.56 3.792
-9.725 46.556 3.833
-9.724 46.552 3.875
-9.724 46.55 3.916
-9.488 45.423 3.862
-9.725 46.556 4
-9.724 46.552 4.042
-9.724 46.549 4.083
-9.722 46.542 4.125
-9.721 46.537 4.166
-9.721 46.534 4.208
-9.72 46.532 4.249
-9.72 46.529 4.291
-9.719 46.528 4.332
-9.719 46.528 4.374
-9.72 46.53 4.416
-9.731 46.584 4.463
-9.722 46.541 4.501
-9.724 46.551 4.544
-9.728 46.567 4.587
-9.733 46.591 4.632
-9.732 46.586 4.673
-9.747 46.659 4.89
-9.74 46.626 4.929
-9.736 46.61 4.969
-9.734 46.598 5.01
-9.731 46.584 5.051
-9.729 46.572 5.091
-9.726 46.562 5.132
-9.729 46.576 5.176
-9.729 46.576 5.218
-9.729 46.576 5.26
-9.73 46.578 5.302
-9.734 46.599 5.346
-9.799 46.911 5.467
-9.804 46.931 5.512
-9.582 45.871 5.429
-9.577 45.849 5.467
-9.578 45.852 5.509
-9.739 46.623 5.644
-9.727 46.565 5.679
-9.734 46.6 5.726
-9.732 46.588 5.766
-9.723 46.544 5.803
-9.725 46.556 5.847
-9.727 46.566 5.89
-9.725 46.555 5.931
-9.631 46.106 5.915
-9.618 46.043 5.949
-9.494 45.449 5.913
-9.671 46.296 6.149
-9.668 46.283 6.19
-9.331 44.668 6.095
-9.341 44.717 6.183
-9.753 46.688 6.795
-9.758 46.713 6.926
-9.76 46.722 6.97
-9.759 46.718 7.012
-9.754 46.694 7.051
-9.479 45.379 6.894
-9.792 46.874 7.163
-10.055 48.133 7.619
-9.772 46.778 7.448
-9.962 47.687 7.854
-9.827 47.045 8.006
-9.786 46.643 2.046
-9.786 46.644 2.088
-9.787 46.648 2.129
-9.787 46.65 2.171
-9.788 46.654 2.213
-9.789 46.66 2.255
-9.791 46.667 2.297
-9.791 46.667 2.339
-9.791 46.667 2.38
-9.791 46.667 2.422
-9.791 46.668 2.464
-9.792 46.671 2.506
-9.792 46.674 2.548
-9.805 46.735 2.718
-9.8 46.709 2.759
-9.795 46.688 2.799
-9.793 46.677 2.84
-9.803 46.723 2.885
-9.798 46.699 2.925
-9.794 46.683 2.966
-9.793 46.678 3.007
-9.791 46.668 3.048
-9.79 46.661 3.09
-9.789 46.656 3.131
-9.788 46.655 3.173
-9.789 46.656 3.215
-9.789 46.658 3.257
-9.789 46.656 3.298
-9.786 46.642 3.339
-9.783 46.628 3.38
-9.78 46.615 3.421
-9.777 46.602 3.462
-9.775 46.589 3.502
-9.772 46.576 3.543
-9.769 46.564 3.584
-9.789 46.656 3.633
-9.766 46.55 3.667
-9.766 46.547 3.708
-9.765 46.543 3.749
-9.764 46.537 3.791
-9.762 46.529 3.832
-9.76 46.522 3.873
-9.759 46.515 3.914
-9.765 46.542 3.958
-9.76 46.519 3.998
-9.76 46.521 4.04
-9.761 46.525 4.082
-9.761 46.524 4.124
-9.761 46.523 4.166
-9.761 46.523 4.207
-9.761 46.525 4.249
-9.762 46.527 4.291
-9.762 46.53 4.333
-9.763 46.536 4.376
-9.765 46.544 4.418
-9.767 46.555 4.461
-9.771 46.573 4.505
-9.779 46.611 4.551
-10.341 49.29 5.123
-10.063 47.964 5.244
-10.071 48.001 5.292
-9.801 46.714 5.192
-9.796 46.693 5.232
-9.801 46.714 5.276
-9.813 46.772 5.325
-9.836 46.881 5.38
-9.835 46.878 5.422
-9.835 46.879 5.464
-9.624 45.874 5.388
-9.617 45.839 5.426
-9.617 45.837 5.467
-9.623 45.865 5.512
-9.79 46.662 5.692
-9.795 46.686 5.737
-9.773 46.581 5.766
-9.765 46.542 5.804
-9.767 46.555 5.847
-9.77 46.567 5.891
-9.771 46.574 5.934
-9.776 46.595 5.979
-9.654 46.012 5.946
-9.646 45.976 5.983
-9.917 47.268 6.194
-9.92 47.282 6.239
-9.923 47.297 6.283
-9.698 46.226 6.183
-9.808 46.747 6.295
-9.369 44.655 6.216
-9.364 44.632 6.253
-9.803 46.724 6.972
-9.796 46.69 7.052
-9.79 46.662 7.09
-9.84 46.902 7.169
-9.865 47.02 7.402
-9.81 46.758 7.488
-10.013 47.724 7.861
-9.876 47.075 8.056
-9.883 47.105 8.104
-9.553 45.533 7.959
-9.827 46.637 2.004
-9.826 46.631 2.046
-9.825 46.627 2.087
-9.825 46.626 2.129
-9.825 46.625 2.17
-9.825 46.625 2.212
-9.825 46.626 2.254
-9.825 46.628 2.296
-9.824 46.624 2.337
-9.824 46.621 2.379
-9.823 46.618 2.42
-9.823 46.616 2.462
-9.822 46.613 2.503
-9.833 46.666 2.548
-9.851 46.753 2.594
-9.829 46.646 2.63
-9.837 46.686 2.674
-9.845 46.721 2.76
-9.838 46.69 2.8
-9.834 46.671 2.84
-9.832 46.658 2.881
-9.83 46.648 2.922
-9.828 46.641 2.964
-9.827 46.637 3.005
-9.827 46.638 3.047
-9.827 46.636 3.089
-9.827 46.635 3.13
-9.827 46.635 3.172
-9.828 46.64 3.214
-9.828 46.642 3.256
-9.83 46.653 3.299
-9.828 46.641 3.34
-9.825 46.628 3.381
-9.822 46.614 3.421
-9.819 46.6 3.462
-9.816 46.586 3.503
-9.813 46.572 3.544
-9.811 46.558 3.584
-9.828 46.641 3.632
-9.807 46.544 3.667
-9.807 46.54 3.708
-9.806 46.535 3.75
-9.804 46.526 3.791
-9.801 46.515 3.831
-9.799 46.505 3.872
-9.797 46.496 3.913
-9.811 46.562 3.961
-9.798 46.498 3.997
-9.799 46.505 4.039
-9.801 46.512 4.082
-9.802 46.517 4.124
-9.802 46.52 4.166
-9.803 46.525 4.208
-9.805 46.531 4.251
-9.806 46.539 4.293
-9.809 46.549 4.336
-9.812 46.565 4.379
-9.817 46.591 4.424
-10.391 49.312 5.126
-9.852 46.757 5.24
-9.853 46.758 5.282
-9.86 46.794 5.329
-9.875 46.863 5.379
-9.876 46.869 5.422
-9.878 46.88 5.465
-9.657 45.83 5.384
-9.656 45.824 5.425
-9.659 45.841 5.469
-9.893 46.952 5.643
-9.903 46.997 5.691
-9.918 47.07 5.743
-9.836 46.679 5.737
-9.814 46.575 5.767
-9.812 46.564 5.807
-9.814 46.577 5.851
-9.817 46.588 5.895
-9.938 47.161 6.01
-9.941 47.178 6.055
-9.946 47.202 6.101
-9.683 45.953 5.981
-9.676 45.921 6.018
-9.674 45.908 6.058
-9.73 46.175 6.219
-9.725 46.15 6.258
-9.677 45.922 6.77
-9.675 45.913 6.81
-9.847 46.729 6.974
-9.833 46.664 7.091
-9.826 46.631 7.129
-9.826 46.633 7.172
-9.85 46.746 7.531
-9.528 45.219 7.326
-9.529 45.222 7.368
-9.926 47.107 8.106
-9.93 47.126 8.153
-10.061 47.748 8.699
-9.87 46.637 2.005
-9.867 46.626 2.046
-9.89 46.731 2.092
-9.865 46.614 2.129
-9.864 46.61 2.17
-9.863 46.607 2.212
-9.863 46.605 2.253
-9.862 46.603 2.295
-9.861 46.598 2.336
-9.86 46.593 2.378
-9.859 46.589 2.419
-9.858 46.584 2.46
-9.858 46.58 2.502
-9.884 46.707 2.55
-9.87 46.641 2.589
-9.862 46.6 2.628
-9.866 46.62 2.671
-9.871 46.645 2.714
-9.871 46.646 2.756
-9.869 46.635 2.797
-9.867 46.627 2.838
-9.866 46.621 2.88
-9.865 46.617 2.921
-9.865 46.615 2.963
-9.865 46.615 3.004
-9.866 46.62 3.046
