-6.20211521810264 8.62850514194653 1.32564113211602 
-6.19712691478613 8.63217291102775 1.28922702485413 
-6.19116059415233 8.63491173099557 1.25235916880811 
-6.1990922039341 8.65752182872623 1.21834344467176 
-6.22825657783487 8.90106343234597 0.572565540749264 
-6.2672978460083 8.96786543587212 0.538808344495826 
-6.2493691745243 8.9535198254173 0.500394376943907 
-6.37242398981788 9.14083492996217 0.472483967358196 
-6.31949404574224 9.07765266814488 0.431597953951344 
-6.28454853808034 9.03823915373476 0.392234062132313 
-6.2127620698552 8.98141545359415 0.239892208967765 
-6.21589583040883 8.99789311496575 0.201895201032139 
-6.18889794988809 8.97110781965526 0.164093413997729 
-6.08361106157275 8.83050060136378 0.125795367086608 
-6.08467571597047 8.84215184397764 0.0888402985345396 
-6.14292603598675 8.93865963597286 0.0527615759139164 
-6.1670913564273 8.98466141262279 0.0156984989666835 
-6.15212760904589 8.97440180605627 -0.0218711936049538 
-5.7273530041263 5.83995151103266 7.80563465946345 
-5.33126037203097 5.4611318033811 7.18755308547604 
-5.23336460338302 5.37383445568919 7.01742387266863 
-5.66914413987331 5.84646072644183 7.5185727193251 
-5.70496944812251 5.89511570461354 7.524244996587 
-5.71813363419639 5.96159195283183 7.37900072454534 
-5.551715030232 5.80028713402424 7.1236720460586 
-5.74421571670396 6.02646744759924 7.28981770035212 
-5.74441542530568 6.04015826163066 7.25045944606412 
-5.29909797195342 5.5852333372126 6.65079332112208 
-5.27470012471796 5.57215257803992 6.58454799106369 
-5.29072572635813 5.60016841936658 6.56731447635449 
-5.28421246123554 5.60401100058536 6.52227039502792 
-5.35093768128693 5.68632412529605 6.56783952875967 
-5.75326299963174 6.12416790509916 7.02092329030511 
-5.4873530454923 5.85503637860573 6.65982207120345 
-5.81775113117267 6.23106894947931 6.98104015239937 
-5.95350204165814 6.38886351399136 7.10277225827089 
-5.91140408702652 6.35588403284307 7.01190059972339 
-5.89463548653129 6.35098214250019 6.95282878823189 
-5.87219367393043 6.3397592815543 6.88749095574175 
-5.87334052769876 6.353079888151 6.84910342160997 
-5.97081300699183 6.54616736848109 6.68648328079816 
-5.8368425318439 6.41131194281525 6.4971310487392 
-5.88608337046024 6.47743528095071 6.51429342861481 
-5.94862666792243 6.55805845851898 6.54489534805592 
-6.01689450471015 6.64537281412497 6.58084779428805 
-5.07905886811856 5.85602862637878 4.79065196579274 
-5.99850032922421 6.92249680326075 5.61929552357262 
-5.81045951060672 6.74073452079887 5.3378055957592 
-5.79801639727895 6.73640509424106 5.29107296447207 
-6.08655270935805 7.08223817025334 5.51724043891794 
-5.99483137036251 6.98757784018621 5.39816524405487 
-5.02909517724475 5.87515919983438 4.49977761372992 
-4.9867229315833 5.83515263847961 4.43173008778477 
-5.9537030326313 6.97384228459012 5.25420291810517 
-5.94507975121438 6.97471634527796 5.21099782183319 
-6.05134745698599 7.11014752053657 5.26759775625722 
-6.10403561975335 7.18275978035942 5.27696644040907 
-4.99848806549911 5.89551017244525 4.29347446915647 
-5.00587553093106 5.9131190392806 4.26913065846835 
-5.11475928734735 6.05227287204599 4.33286487878936 
-5.12408233234469 6.07266858622152 4.30982708850501 
-4.77367161423312 5.66618295095623 3.9873317794338 
-6.22794138014812 7.39856027421809 5.16221852291541 
-5.23593148786632 6.2523292583493 4.24890846410701 
-6.22811270826648 7.46791584927581 4.94421725557729 
-6.28585535636156 7.5485115826313 4.95298975249035 
-6.26565988678452 7.53619182148764 4.90131311388708 
-6.55825664951463 7.8990613005502 5.09085282338907 
-6.50448665242203 7.8460425905547 5.01118874965428 
-5.50812040082208 6.69793995435273 4.0860564820136 
-8.7172112519005 10.6042091461307 6.41179544708473 
-6.72701485448878 8.19907726947322 4.91028941909679 
-6.78310943126873 8.28003634921023 4.91266145319592 
-6.82093930123348 8.33702442518972 4.90047759508968 
-6.78246908685349 8.30389071506345 4.83452513857998 
-6.94417897033749 8.52674930858687 4.86930373150904 
-8.74387248014678 10.7475068675798 6.07943906316372 
-8.73104682107144 10.7476199302386 6.02166527543663 
-7.72926019728947 9.72190501175847 4.67366350496615 
-7.7063564397094 9.70735028390011 4.61656512034454 
-7.5211770366582 9.48712759454659 4.46308594986357 
-7.13766268205202 9.1298348065343 3.83556455689071 
-7.19248893312546 9.21281973558247 3.8247291458871 
-7.76394762240269 10.1058477126361 3.60690550660667 
-7.09330160815342 9.39663057857161 2.78192426323213 
-7.20457410960368 9.55483294159206 2.78501901413972 
-8.02128486346136 10.6649199816089 3.01035652292549 
-6.79609068743749 9.05130135581245 2.51346718672189 
-6.74993228215485 9.00128547161387 2.45922329311828 
-6.74314192586349 9.00420596477246 2.4191552056653 
-6.76295368712485 9.04223112894292 2.38811805861456 
-6.8182110110268 9.12724876835546 2.36956017111453 
-6.92080446613041 9.27690205511139 2.36634167171423 
-6.92788116810392 9.2983946694847 2.32964268754302 
-6.95566101157568 9.34811910364139 2.29976912244139 
-7.04654875192865 9.48253899714827 2.29042704049713 
-7.35848856809487 9.91357467157155 2.3498001441453 
-7.48610785172522 10.0981372340422 2.34789810529019 
-6.2908991185896 8.63449378562629 1.51308820069258 
-6.30375168710856 8.66304778547204 1.48082424910476 
-6.28592567006439 8.64944258988665 1.44057929313762 
-6.2740295012254 8.64400940207787 1.40202288713104 
-6.24525002279902 8.61554788173135 1.36016859707002 
-6.2521727431128 8.6359298738005 1.32621609552164 
-6.2313100196769 8.61879741600549 1.28644088161734 
-6.22637304358031 8.62283539252143 1.24911128014784 
-6.23031038472227 8.64006032981567 1.21471302645469 
-6.22929473240825 8.67130512225688 1.10740734237108 
-6.19753813328644 8.78393022561209 0.599138350350348 
-6.19252937490072 8.7885269438067 0.563122765923971 
-6.23654292903125 8.86164305688266 0.530201848011456 
-6.27558419720468 8.92844506040881 0.496444651758019 
-6.30560758356128 8.98317758651401 0.462384141814477 
-6.27368874430336 8.95044838908843 0.422830582231531 
-6.28573773223398 8.97825511301154 0.386967876401236 
-6.27783583203479 8.97820708563918 0.34879399995145 
-6.24384788662097 8.94065146945585 0.310282379752061 
-6.24394494078287 8.95360186861783 0.272755113879282 
-6.22197067343915 8.93350089029188 0.23487411097818 
-6.21600435280534 8.9362397102597 0.198006254932162 
-6.16093352028468 8.86878977136334 0.159476197951994 
-6.11385122504362 8.81211015333982 0.121711200085417 
-6.08781090677097 8.78718275625612 0.0847616846706485 
-6.17112796545242 8.91674192573928 0.0492023769241827 
-6.20231422293675 8.97481317981015 0.0123321617698302 
-6.18935783740986 8.96678167890514 -0.0252455274411671 
-6.20750107228688 9.00609913857053 -0.0622846144703209 
-5.73935093251577 5.81720419223811 7.73293321269846 
-5.76806555803017 5.91224130135535 7.56096518362391 
-5.69067042213977 5.84558995156169 7.41917150544531 
-5.74122135069754 5.9496355380697 7.32340879081567 
-5.26993574045549 5.47460963532568 6.68564075917809 
-5.26528627260915 5.48179780556333 6.64321671529842 
-5.3160416559501 5.54551822589971 6.66912751777528 
-5.55827958178164 5.8096998346779 6.93303827488426 
-5.71233890935972 5.98350251257442 7.0863773660189 
-5.5162582262427 5.79059970180499 6.80503787329949 
-5.19221467784373 5.46362990761151 6.37057858465847 
-5.23542301381506 5.52084082310093 6.38788340298874 
-5.28244076461577 5.58102712017449 6.40883420487074 
-5.28154938437889 5.59082046456157 6.37097163875041 
-5.25985982514647 5.57997467210359 6.31014805471037 
-5.25519994021866 5.58493473667973 6.26784245936729 
-5.33046064203843 5.67691442101229 6.32235287749317 
-5.27586380914931 5.63018237635382 6.22164043362264 
-5.2475948027831 5.61152792250076 6.15278306275672 
-5.31349598717692 5.69402272040222 6.1951519650815 
-5.34834327810882 5.74174874946053 6.20037049355927 
-5.79130428358605 6.2881868065939 6.48366775744474 
-5.8727410526291 6.38796143021515 6.53540770302971 
-5.75766326558765 6.29890552484888 6.29568249366292 
-5.09012884793353 5.82294980467806 4.77056739228362 
-6.01466416284349 6.91142131023965 5.52598346217731 
-5.81597900873137 6.69576103381477 5.30906386423837 
-5.76723262481579 6.64942664080381 5.22932057463689 
-5.83980269356279 6.74434740145453 5.26016258518013 
-5.77379045431226 6.67942716512246 5.16608025508425 
-5.70102433119897 6.60651659420454 5.06710914362084 
-4.89915926917043 5.68925960030413 4.32640437242438 
-4.87486687651377 5.67081426385462 4.27617619267954 
-7.44162103888753 8.67391550628668 6.4353721059746 
-5.02607762665226 5.8738153017216 4.31907259091156 
-4.99892296433282 5.85202437625322 4.26616914777122 
-5.15234638520547 6.05873434952059 4.30539557253343 
-4.84574149129956 5.73537415017507 3.93595480941372 
-5.1361532762135 6.09655368209521 4.1106377565223 
-6.28648438880598 7.4935081896438 4.92181765128654 
-6.62494856086414 7.96703210061376 4.95567780916019 
-6.7272396529262 8.10225415846883 4.99364855246312 
-6.65989010581898 8.03381352098033 4.90552093303641 
-6.71306066863478 8.10882869860225 4.90625164648422 
-6.73826855083298 8.15225274531552 4.8864565143057 
-6.8629108557084 8.31534327657246 4.93765313949215 
-6.83126630748029 8.28964115935335 4.87527544730685 
-6.74547761682891 8.19704784491656 4.77573694113312 
-6.96418349531747 8.48791511901502 4.85047005998269 
-7.8065643387927 9.77528349289 4.59960900040949 
-7.5143249205595 9.46291645392724 4.26047719878849 
-7.36084620975986 9.28320417918161 4.13264550029108 
-7.30062352927796 9.2578892773113 3.93523077327149 
-7.12734791200825 9.05143287357435 3.80234142153175 
-7.13339526944456 9.07162633139953 3.76610418278402 
-7.15704731768598 9.11392603370226 3.73819604791291 
-7.1416496973371 9.10773870891765 3.69050069310892 
-7.26089308113671 9.27153534977806 3.71260716469439 
-8.06672372285007 10.3129111748619 4.07804332924654 
-7.84633712138432 10.1685088238483 3.53173784343912 
-6.1664657827642 8.02840903712743 2.67435835741567 
-6.72706683163092 8.87233993223494 2.54257198634319 
-8.18684583988159 10.8377146635613 2.95592045082064 
-8.07025825429698 10.6970456957911 2.8684785902471 
-8.02443868448452 10.650550212749 2.80822476002571 
-6.8950755833756 9.16587384052378 2.3753424723296 
-6.83522937336059 9.1119055982553 2.27876974399173 
-6.80679876839213 9.0838074242903 2.230625443014 
-6.95483368527045 9.29345161282264 2.24064326563865 
-6.91852761454368 9.25755163851577 2.18978446859552 
-6.98974155793563 9.36503886878737 2.17315522215819 
-7.02249368736449 9.42107741249388 2.14411793539748 
-7.35449708408808 9.87755119830716 2.20369114695099 
-7.35082563355905 9.88566831765821 2.16172085185545 
-6.47689404546651 8.81728078250849 1.57830732548953 
-6.29655821858544 8.61577072124128 1.39219766714267 
-6.30147357704471 8.63392460764892 1.35825316223366 
-6.28261821546332 8.61902025551542 1.31846995169 
-6.28561844942643 8.63345834546947 1.2828209035417 
-6.26081278457064 8.61131093467277 1.24174766587299 
-6.2647501257126 8.62853587196701 1.20734941217984 
-6.21700968918554 8.75309323167927 0.590181395260346 
-6.20403284858943 8.74599067988765 0.553002228884864 
-6.18308792578292 8.72718885810981 0.514659480560276 
-6.26105295289866 8.84877141511352 0.485070876761696 
-6.27810509893708 8.88419140513456 0.449527477900224 
-6.25716017613057 8.86538958335672 0.411184729575636 
-6.28521711077111 8.91603610557362 0.376335170600425 
-6.26428260504608 8.89946238945728 0.337873973739253 
-6.19224626356742 8.80731475404036 0.297478498284361 
-6.18726837733239 8.81321062878308 0.260945942485885 
-6.20336296112272 8.84677272057734 0.224550272004773 
-6.20039243674221 8.85489670098158 0.188009719566939 
-6.15029389017864 8.79376087163503 0.150315940927692 
-6.14232020769033 8.79427158594135 0.113456081521034 
-6.19953076608792 8.88725211572694 0.0779575528604806 
-6.1885408322771 8.88330661871024 0.0411689126811532 
-6.20267938143283 8.9150108122777 0.00386574463178757 
-6.20277643559473 8.92796121143968 -0.0336615212409921 
-6.22397683193269 8.9698769842013 -0.0715688731685069 
-6.21195755358466 8.96463233063647 -0.107895767924348 
-5.79314889020513 5.82205805520863 7.75631631542772 
-5.71494013573865 5.75781648426724 7.61120395730558 
-5.83120257807627 5.92750899987037 7.59688832498979 
-5.77441072938324 5.8822440628444 7.48159919302478 
-5.70044611681008 5.85871158761574 7.22492298674977 
-5.45306792266689 5.61763020771494 6.87368174027883 
-5.3537117366532 5.52700099311055 6.71173674939132 
-5.50770931992989 5.69820535791084 6.86610978327016 
-5.61016279406858 5.81622306163126 6.95487846013658 
-5.75588153167643 5.97961190398327 7.09573273858322 
-5.80397995423426 6.04146756503967 7.11530630083411 
-5.87185762833191 6.12489131205452 7.15818417789164 
-5.2233454380771 5.46209418944707 6.33284598032592 
-5.34276722131274 5.59870459754179 6.44132821439584 
-5.88562568639241 6.17842402216403 7.05589691438045 
-5.92546571835063 6.23153521165876 7.06155319836364 
-5.40966571552498 5.70246230925342 6.4120797134552 
-5.41723803476736 5.72248095494104 6.38447244877214 
-5.35320990216316 5.66682276553014 6.27293250614364 
-5.34757199991805 5.67085388099288 6.23017316201643 
-5.37768318592318 5.71504578678837 6.23037646395072 
-5.21637637387808 5.55526982509202 6.00939400723748 
-5.92000645269477 6.37632390970767 6.58581787648196 
-5.87098017747144 6.33517242078278 6.49320244202528 
-5.76627079732394 6.25782950750912 6.26555552587162 
-6.08968444297976 6.87293017332754 5.77974144250856 
-6.03635593579716 6.82417227935791 5.69223644374077 
-6.05836271286243 6.86073033589589 5.67577598478451 
-5.99728184943055 6.80398210734042 5.58332697870058 
-5.27827825956964 6.01151275259099 4.85132187660842 
-5.80440227144648 6.61794528674628 5.29865281275891 
-5.61227610939893 6.41102262082987 5.09016552448137 
-5.75349819825209 6.60397316953387 5.11417664721146 
-7.25257473237831 8.33314898589396 6.40223517941361 
-4.80680817461088 5.53946223143111 4.21697892472813 
-4.86861967377386 5.61877939139807 4.24266807288363 
-4.92094854600184 5.68880019917788 4.25844521648877 
-4.96177701235884 5.74506844344752 4.2644368007195 
-4.9834040438155 5.77996399705586 4.25478332405205 
-5.41086439541028 6.31408915409877 4.4920545957864 
-6.63744616513857 7.94647858221475 4.85593010436453 
-8.81899827521663 10.5668626473509 6.39920284322322 
-6.80751671456827 8.17343690173286 4.90263336138373 
-6.80190968447385 8.17876717374372 4.85935704588442 
-8.68322776375842 10.4518030278627 6.15253376625026 
-6.77128888050503 8.16657419736527 4.76082133081808 
-8.85476634749636 10.6904263121011 6.17308621408419 
-6.98810008956665 8.45279672589674 4.83345138359286 
-8.03180548891587 9.98354976748138 4.6984350782872 
-8.32437232950078 10.417961760944 4.63749751976269 
-7.25922679376053 9.13731442681383 3.88322237416639 
-7.18925395815985 9.06220319444718 3.80608868187039 
-7.10066754228604 8.96275761194148 3.72068910828573 
-7.17304715694469 9.06747857803248 3.71909829536636 
-7.14885741872785 9.0497736564524 3.66703912720629 
-7.11587556264305 9.02055113807686 3.61061614569016 
-7.13949673873379 9.06155168383147 3.58322498219115 
-7.06155582092271 8.9747411814786 3.50492770794604 
-7.82798818302797 10.097792053326 3.40870267517008 
-6.13031194471135 7.92289276774144 2.63666170733032 
-7.74939206601037 10.0235548816472 3.2883638866021 
-7.71828093657897 10.0636947993825 3.01942460635417 
-8.08521399013619 10.6690537234317 2.76027863795545 
-7.36532359968873 9.73287198767156 2.47394798398776 
-7.07384716037706 9.36004121313755 2.33622010543126 
-6.8679324851998 9.10051478622504 2.23041860350041 
-7.06534138819126 9.37293672387398 2.25508922045099 
-7.013212224565 9.31660673012559 2.19995382255784 
-6.81992995423577 9.0728724381408 2.1016451461627 
-6.89905023553672 9.1894606253024 2.08721342441867 
-7.07105076425387 9.43141577645324 2.09952642438408 
-7.01891118354614 9.37285767704334 2.04450947502752 
-6.97756104457313 9.33120233486532 1.9941284166866 
-6.31613454149797 8.6372528993159 1.20208811345289 
-6.2375206276096 8.72039833951965 0.580482620447925 
-6.24854027100301 8.74690590689466 0.545081660041118 
-6.20059302996595 8.69226586028869 0.504913476438604 
-6.22256613474156 8.73362975242482 0.471121850125667 
-6.22062495489826 8.74305288937718 0.434119552264347 
-6.23063570882367 8.76733235109067 0.39878181444551 
-6.24768785486209 8.80275234111171 0.363238415584039 
-6.20767782388473 8.75851240794386 0.324750785302729 
-6.19067584249812 8.74472553916771 0.28770606074255 
-6.1827021600098 8.74523625347402 0.250846201335891 
-6.16771795755917 8.7359055960209 0.213675031599769 
-6.16672392288247 8.74495852553853 0.177643453894673 
-6.17078437353348 8.76199492858882 0.141015688950787 
-6.17482436911528 8.7799602807525 0.104786446842416 
-6.22907000341027 8.86885480664979 0.0684436432015816 
-6.21609316281416 8.86175225485818 0.0312644768260988 
-6.26332827714685 8.94080540899604 -0.00538963714420015 
-6.23326281808369 8.90919369492781 -0.0422047107436661 
-6.23237143784682 8.91898703931488 -0.0800672768639878 
-6.27367670397432 8.98986818567614 -0.118409940794851 
-6.28985348713526 9.02509964145323 -0.156238076855675 
-6.22759769792333 8.94762665760667 -0.191934438706953 
-5.80391216517775 5.79653075012709 7.68773859091668 
-5.8147626636485 5.87371556973946 7.49417079027479 
-5.77757562976632 5.84983704548117 7.40533097857476 
-5.65502094007354 5.73855497192535 7.2095102585035 
-5.4368123870468 5.52982572096221 6.89319787126819 
-5.36004639501578 5.46373997390042 6.75814795279042 
-5.79818420876999 5.92208238367699 7.27052367909491 
-5.92007413627125 6.08551567815587 7.29908583944292 
-5.91278816271102 6.08991014000014 7.24992603250178 
-5.77866128485812 5.96543424461282 7.04563377009923 
-5.84369714436221 6.04458345349541 7.08543786092573 
-5.34635711924367 5.54411943936137 6.44713836569114 
-5.58818124808322 5.80605922037166 6.7003633119699 
-5.66453265964786 5.89655121391215 6.75321641616576 
-5.85667647662566 6.10864992286143 6.943457042879 
-6.25241878951025 6.5340197125429 7.37033562734509 
-6.35919495067743 6.65871487219465 7.45359534568711 
-6.35206295877693 6.66421995634308 7.40168905612313 
-5.45956007498414 5.75373946948864 6.29034573984564 
-5.3208743290724 5.61980613188299 6.09574138417005 
-5.93223854545 6.33581349509979 6.56260034623734 
-6.0552616344964 6.48002344718605 6.66054240196067 
-6.17674374437732 6.6343900900409 6.71427665469837 
-5.82191209722034 6.2669579086119 6.2919571888833 
-6.02365645404859 6.76780798034354 5.61232704834941 
-5.09815436771238 5.75986002236 4.65981553527106 
-5.07492219174361 5.74401299900672 4.60860863873064 
-5.37284813521189 6.08985979712539 4.84607740608082 
-5.18876945460639 5.90241075732432 4.6194730954439 
-5.15983319438131 5.87894360681991 4.56251714927694 
-5.09063026707931 5.80938548597405 4.47165104386674 
-5.01282007571979 5.730719547185 4.37315767110553 
-9.21325993870614 10.5343064234442 7.97815054739661 
-4.98057445564403 5.7118559759284 4.28567110911852 
-4.99836120012062 5.74247699140448 4.27288862027143 
-5.05552883171519 5.81677233731655 4.29185000200482 
-5.26051845436591 6.0908979442143 4.34245777045867 
-5.09225081200756 5.90649289652932 4.17407299969361 
-8.97152845090929 10.5383125121884 6.88135607815 
-8.92805227828254 10.5036705281105 6.79723617594269 
-8.75934034587523 10.3211096565459 6.61884419148186 
-8.79749023381178 10.3977050044592 6.5472244291081 
-6.57981446048524 7.79273929157052 4.86095517431792 
-6.52492288149708 7.73990911581897 4.78346538588526 
-6.70925905229863 7.97101518870414 4.88015673154717 
-6.87820320302921 8.18372395251216 4.96484899986264 
-6.85813084296122 8.17121565712455 4.91094285000862 
-6.59080128568547 7.86585869045418 4.68288755261749 
-8.85687108176536 10.5805841914028 6.24017222028374 
-6.80164135730974 8.14038194899942 4.75446447534038 
-7.05035818840885 8.46321056144125 4.84891839750591 
-7.1538585200745 8.7502621196581 4.39946530138329 
-7.96645085441114 9.87003272721086 4.50050616911432 
-8.40069162021857 10.4354301209078 4.65246685713895 
-7.34612055843938 9.17874692948191 3.90693127945002 
-7.24201901298557 9.06109257214302 3.81176213976966 
-7.16908125328229 8.98189533588807 3.73378417249338 
-7.18585630815193 9.01639323784891 3.70321676750549 
-7.16555818413507 9.00333306183582 3.65337111731745 
-7.16480033048871 9.01516597764044 3.6131605914098 
-7.11810539779877 8.96848196035434 3.55062202398905 
-7.10267690529919 8.96099547902162 3.50344364055716 
-7.09209758924767 8.96001164148266 3.45933104671693 
-7.10791508186922 8.99265164521672 3.42791137010939 
-7.01418194330936 8.88671027997044 3.34482052364217 
-6.16139099863107 7.91560168170587 2.59968297144302 
-6.24125280774736 8.09340774141455 2.39287582353468 
-6.73964846990348 8.74997579404262 2.5466595877289 
-8.14863731052925 10.6028620642021 2.98746895701277 
-8.0979789813502 10.5520920430277 2.92403088866313 
-8.2181170205284 10.7364111828289 2.8763509453984 
-8.12704084275165 10.6323345768626 2.79959733915713 
-8.09200029759244 10.6005137453908 2.74409784848797 
-8.16939030820766 10.7157959149511 2.72469812950972 
-8.10483404861304 10.6451546160138 2.65840792925041 
-8.02646205797344 10.5563114032966 2.58783313150172 
-8.20448467225413 10.804950871432 2.60012214154906 
-7.27666538601985 9.60945182616284 2.22628782107994 
-7.06166104673664 9.33841466350805 2.12149702250212 
-6.7991256844536 9.0034891294325 2.00491036411843 
-6.77548289072553 8.98468044660146 1.96102742123891 
-6.83887231648536 9.07935092352948 1.94060655876621 
-7.01393000666345 9.32390438777655 1.95205129383327 
-6.97950818828215 9.29042105337514 1.90341401140152 
-6.95495915952592 9.27012467975203 1.85776330269475 
-6.25478955076229 8.68269535541154 0.574915564528805 
-6.24878231999005 8.68729207360616 0.538844754153816 
-6.23781284124844 8.68241762747605 0.501657591138974 
-6.22084173201253 8.66992991524802 0.464095895206697 
-6.20880199859527 8.66561421079659 0.428167523286371 
-6.19981942663896 8.6638968194414 0.391370886467683 
-6.20483743953805 8.68279112071847 0.35559539314344 
-6.20188737022676 8.68998615200931 0.318656317870091 
-6.20089333555006 8.69903908152695 0.282624740164994 
-6.21292186841146 8.72777475456346 0.247160557170214 
-6.19692877649284 8.71621599144883 0.210052610022063 
-6.18696818721923 8.71356965098023 0.172802224419249 
-6.18796105932782 8.72577963527278 0.137161172910309 
-6.18501099001652 8.73297466656362 0.100222097636959 
-6.24325089295132 8.82725435289734 0.0642618235529198 
-6.24731134360233 8.84429075594762 0.027634058609034 
-6.27547093268269 8.89567769303396 -0.00904648878140391 
-6.24440700123302 8.86406597896572 -0.0459167883294813 
-6.25153503042645 8.88592880077375 -0.0835312667083112 
-6.24959385058314 8.8953519377261 -0.120533564569633 
-6.26674865106138 8.93151234261659 -0.15790795184633 
-6.23570517468093 8.89897167943496 -0.195176774229922 
-6.27200728270064 8.96223955969829 -0.233838745129609 
-6.27410128163557 8.97518995886027 -0.271255559105164 
-5.75954238832556 5.66453435757887 7.70716187186896 
-5.76732001644759 5.68603383300537 7.67589263035545 
-5.75080805205192 5.68298297983608 7.61224334782587 
-5.76791432544921 5.71266818514557 7.59363259348557 
-5.75606668369117 5.71371019691778 7.5363125545426 
-5.72101493797611 5.70630933403109 7.40942050895833 
-5.85519198048081 5.85241835066331 7.54112464793922 
-5.73086610996386 5.74168815773297 7.34113297630478 
-5.83227982248386 5.85617859924376 7.43048184713127 
-5.66564625074581 5.70193516590861 7.17925684553626 
-5.66586641441675 5.71469703082664 7.13950006841275 
-5.87060414714936 5.93295562034774 7.35571707929916 
-5.86425528076799 5.9401369295322 7.30780806681317 
-5.86545346175623 5.95382774356362 7.26850503847378 
-5.93141601135772 6.03353569412488 7.30967837229202 
-5.96648906623848 6.08181360380868 7.31083640110382 
-5.90185262393784 6.03004602298893 7.19231580170131 
-5.85602745384745 5.99576052423933 7.09636569402237 
-5.82799462851158 5.97988605667326 7.02332937495389 
-5.36624970998355 5.51847221056782 6.43073900840365 
-5.93189250265659 6.11121750593718 7.06833600097944 
-5.80029947607777 5.98879490407381 6.8726104900536 
-5.80237301994348 6.00267425234918 6.83559219891356 
-5.8231964708118 6.03682253003489 6.82233996800363 
-5.80073420314173 6.0265286182024 6.75740065834901 
-5.85181800487137 6.0915413340337 6.77741997274467 
-5.81514704332728 6.06525989197633 6.69727335769728 
-5.80302231040046 6.06537981568834 6.64492931262789 
-5.34731549479537 5.6006684079364 6.08789278508054 
-6.10938801057446 6.48616960565149 6.67803401660874 
-6.12850164582626 6.51808291662249 6.65941526562907 
-6.13055473462276 6.53289121401126 6.62279549732455 
-6.18280140748014 6.60124265780823 6.6400051065094 
-5.06620848230895 5.68031316182992 4.60119610217138 
-7.40644777541272 8.30879434203312 6.67936762283548 
-6.03022824344701 6.78016861836857 5.40356506414736 
-7.35420639436165 8.29130182366429 6.50084616795719 
-5.14568409144222 5.826860706991 4.49083515303124 
-5.22198137564799 5.92308748524304 4.52675561270594 
-5.16525687153428 5.86821087702075 4.44612881545428 
-6.2849985072631 7.14740153981713 5.37198090532341 
-5.15405602856588 5.8749945345577 4.37730587464785 
-5.22565811798333 5.96582929132013 4.40741406210804 
-5.26470498643468 6.02042131055374 4.40935314331216 
-7.55859067398602 8.66270279220168 6.23981617551552 
-7.44291134009417 8.54406459732384 6.10047921604632 
-5.04139823780283 5.81167147643102 4.07658585025789 
-9.10993144453318 10.5531279600682 7.14969979319096 
-8.92495414584202 10.3725243272828 6.90336112946142 
-8.8659440261369 10.335760439149 6.75604569350867 
-8.83301069713306 10.3130131203545 6.68085907905614 
-9.03514645053791 10.5654781617945 6.78233600030081 
-6.58907681233433 7.73370478312028 4.87270809508716 
-8.98945084433097 10.5606001404189 6.59451716489173 
-8.91890780903332 10.4936266105629 6.49175763142192 
-6.88765446730482 8.13076699199542 4.9372004891181 
-6.72666159795085 7.96638745105125 4.74658297037908 
-8.87061302363758 10.51685004896 6.20704684509986 
-8.94192200452684 10.6167445962933 6.20655319751266 
-8.83735291381589 10.5079683563345 6.08392722824327 
-7.11680544768903 8.47826228149953 4.8612244126819 
-8.44272340261995 10.3948066436411 4.68796195574783 
-7.34194538319027 9.11905076355507 3.83575836546468 
-7.20072974871152 8.95569622646904 3.7221080262552 
-7.19990011277603 8.96808788395234 3.68321151739068 
-7.14934443803681 8.91805827764737 3.61794246062582 
-7.16608862075575 8.9512570230601 3.58789202701002 
-7.14287689985621 8.93448105059342 3.53628660763409 
-7.11569136538608 8.91139096857693 3.48390013586584 
-7.08652934121214 8.88737193744704 3.43100468936485 
-7.09161913640036 8.90570749704544 3.39391517899748 
-7.12601933714434 8.96138269437042 3.3712783550507 
-7.11245464192101 8.95724180205656 3.3267200090657 
-7.08919159380155 8.94009562215517 3.27603008389738 
-7.88495647938956 10.0772967091602 3.21122247614823 
-7.81207486370974 10.012907770294 3.0965142886702 
-7.80948408493783 10.0226942536279 3.05316675394355 
-8.20152027896674 10.5817396572635 3.0265660038931 
-8.14988393247039 10.5300406869757 2.96267418675933 
-7.92794847245651 10.2569365086906 2.83829147354356 
-7.70702323100986 10.0642872674516 2.46301292410356 
-7.61363172805912 9.95576131121546 2.39176027974734 
-8.09462202891811 10.598528772961 2.49769506001457 
-8.24515674568712 10.809646930179 2.49878684099689 
-7.14260170800212 9.3787090996592 2.12606776193192 
-6.9551057212998 9.14426429880836 2.03207566958361 
-6.7963106678887 8.97231265808544 1.87388297766784 
-6.86173832765373 9.07051039722309 1.85293714718369 
-6.2932031053232 8.67748500711269 0.568333002646266 
-6.27628332330719 8.66536750231938 0.529855812506375 
-6.26531384456559 8.66049305618928 0.492668649491533 
-6.26229199296516 8.6682468291588 0.457043591261312 
-6.23133071595532 8.63737552996001 0.418342303298008 
-6.2262910854189 8.64067309160651 0.382843690243729 
-6.2353033669578 8.66495255332 0.347450726476281 
-6.21531600639937 8.64800862976894 0.309960249771334 
-6.22234138115298 8.66913103670753 0.274176759807731 
-6.22535203219755 8.68579723232309 0.238409263122846 
-6.20838092296164 8.67330952009506 0.200847567190569 
-6.22643154138657 8.70872951011611 0.16535939427771 
-6.22145365515154 8.71462538485883 0.128826838479235 
-6.20043695005591 8.69638230475967 0.0917981071977745 
-6.22354205380855 8.73978576831336 0.0557137470461262 
-6.28481866313508 8.8375927168567 0.0192837308992404 
-6.23570855097029 8.77961394228506 -0.0180747474924621 
-6.22567617940755 8.77752634349514 -0.0540111160521484 
-6.23280420860098 8.79938916530316 -0.0916255944309783 
-6.23083215660698 8.80751314570741 -0.1281109209202 
-6.2761521464435 8.88285050339168 -0.166469578129782 
-6.24205150860211 8.84771152711383 -0.202870135615015 
-6.23910143929081 8.85490655840467 -0.239809210888364 
-6.25529867752097 8.88920906506836 -0.278035869784703 
-6.26446494071961 8.91459914908601 -0.316175316174991 
-6.24238801893607 8.89375775589061 -0.352225330660866 
-6.24653066895768 8.91246352292373 -0.390285561184462 
-5.77093644472841 5.6547305768931 7.59150341657349 
-5.68418217050579 5.58397950110475 7.43772984835613 
-5.78265141399241 5.69345498961384 7.52583592136683 
-5.83681204877784 5.78678514367458 7.47307744457693 
-5.77435740506066 5.7374273417071 7.35140384307671 
-5.7483319415793 5.72378097980255 7.27835952736887 
-5.80294806696954 5.7908469891578 7.30700081918985 
-5.91293817139637 5.91314609206367 7.40449392873946 
-5.87286841278221 5.8868509278999 7.31337737647943 
-5.7756579320171 5.81492748032864 7.1132617031711 
-5.92428988741391 5.97664695869782 7.25571412504328 
-5.98187093690674 6.04779897194137 7.28519969184454 
-6.27358030739395 6.35567549431513 7.59758535509601 
-5.62020000199679 5.70884531877297 6.77022639382353 
-5.64106436300355 5.74113569823189 6.75617711724257 
-5.92632781294749 6.04324313062812 7.05818103388084 
-6.17980595022402 6.31466093701633 7.31828343114883 
-6.16502425651408 6.31291610144835 7.25960214585348 
-6.52187937879399 6.7036301849455 7.59183269848851 
-5.09665570958022 5.25395441018309 5.9011574427073 
-5.32011971501352 5.49413070993778 6.12352927216822 
-5.71063996459649 5.90889812983079 6.53585921054139 
-5.34923686634196 5.54737554525091 6.08770099639742 
-5.87413185036677 6.10139971370723 6.64603968418639 
-6.48091513133237 6.75630226703576 7.2479973182284 
-6.09916343593754 6.42315529491857 6.62557345416705 
-6.38996097111866 6.74175411079279 6.90049507413371 
-6.34003887794864 6.70134303673734 6.8059934253132 
-6.16025239131467 6.5246574567559 6.57455875328633 
-7.60170395765039 8.40350627471811 6.99061714940791 
-5.1549346718237 5.72478965661409 4.68235138404631 
-7.42633441206785 8.25255354197627 6.69829811425508 
-6.09410989991903 6.78748028756373 5.46196904122869 
-6.0473095126503 6.74616084755446 5.3834133234944 
-7.27645824026919 8.12763196756909 6.43475236923648 
-5.78122424239852 6.47246004707919 5.07960485186105 
-7.37108323406868 8.26020082390237 6.43020866212473 
-7.04303248299418 7.90607224115598 6.10345752495871 
-5.28859697108954 5.95152842242997 4.55452971273831 
-5.23567184381746 5.90278425056673 4.47782897333732 
-5.2219736220036 5.89660378683532 4.43561858713965 
-5.20631936555515 5.88856542487711 4.39250070337372 
-7.39019625237723 8.41825195431473 6.01757366484309 
-4.99280522384236 5.71187626965019 4.01048958490122 
-9.34225734323994 10.7217683170382 7.33639742924843 
-9.20560539362358 10.5823093121246 7.17724445731786 
-9.34604995723553 10.7613736515 7.2329545804275 
-9.12557133097405 10.5243544065202 7.01102850311136 
-9.08009985114512 10.5048703441062 6.87297365852157 
-9.14066067953184 10.5913893964172 6.86720870001004 
-6.60329543278112 7.69096626285088 4.84971946527634 
-6.7946967259066 7.96259975825802 4.83815764608958 
-9.10399470132242 10.6790357895086 6.42874211611823 
-6.688661617552 7.86270163567927 4.68801962128254 
-9.01365841379015 10.6210191344255 6.21343757419792 
-9.01833479108011 10.6424980266924 6.16582387876267 
-7.20454370309466 8.51858416186346 4.88773502653698 
-7.14192022292645 8.45683470241268 4.80490270795267 
-8.28064246690992 10.0643683403468 4.7469682780786 
-8.32011760805082 10.127098062091 4.72333674405752 
-7.25044884263216 8.92756732248356 3.80004230396794 
-8.14535326355414 10.041428622625 4.22314210379893 
-7.42191690255809 9.1765221096281 3.7679226525974 
-7.19663117255509 8.90987940881757 3.6138063692326 
-7.15577385071198 8.87285509010015 3.55466889165106 
-7.16473480503097 8.89676434437892 3.52019142209122 
-7.14149221198073 8.87868921536412 3.46910297408738 
-7.10643121175229 8.84779733300575 3.41400200625373 
-7.12711833589113 8.88601103142017 3.38524959640235 
-7.13316569332743 8.90620448924536 3.34901235765462 
-7.11475182165604 8.89556095313773 3.30138822207796 
-7.1405287409831 8.95211021115056 3.2355463018592 
-7.13673418094502 8.96041586474556 3.1958055180144 
-7.04832025575769 8.9090629434874 2.96407730630566 
-7.0229471913439 8.88894824305505 2.91522636619192 
-7.83432699019067 9.9827494417519 3.03735569478311 
-7.85157488212374 10.0592281517608 2.87293327369082 
-7.76341230122967 9.95886734224811 2.79793943663745 
-8.12846741557162 10.4544974976956 2.84062573192524 
-7.81474317607388 10.065308985502 2.68816423459468 
-6.88613388027852 8.90798933338131 2.25743472391063 
-7.61239456746898 9.87148408667237 2.41146938005719 
-8.39046969212019 10.9225604872062 2.51876349267099 
-6.91642643238976 9.01837975945961 2.03935668420788 
-8.02802550314774 10.4792838090321 2.32201808612334 
-8.35561003806433 10.9205173405432 2.37047978006408 
-6.94077428150453 9.10931714258216 1.85568489483763 
-6.81034808876051 8.962865362728 1.74667044664379 
-7.12927403239966 9.39462086886114 1.78842036744113 
-7.00173616466555 9.23837574461991 1.71737893726484 
-7.05737323417611 9.32505588696208 1.692014067476 
-7.00400941713299 9.2659459069267 1.64100239183679 
-6.97242941334523 9.23673711065755 1.59543889563607 
-6.97059088794175 9.24690066247934 1.55660560935952 
-6.35269473018741 8.68773089157282 0.597583603538642 
-6.34270326876311 8.68378539455612 0.560850189307928 
-6.30579168847886 8.64567103669412 0.520858874219575 
-6.2688287809747 8.6071864713974 0.481783053338835 
-6.26678494669157 8.61586919348031 0.44661174389274 
-6.23783103153623 8.58722599994303 0.407902459290076 
-6.24281817228463 8.60482114467199 0.37264393733793 
-6.25680273978063 8.63541471593529 0.338087251911404 
-6.26187207989963 8.65467922464709 0.301396264379547 
-6.26588120333073 8.67134542026265 0.265683993643274 
-6.24383515369788 8.65180318361537 0.229117007785301 
-6.26090775480552 8.68629422452302 0.193175086088316 
-6.24290730103239 8.67250735574687 0.156075135579524 
-6.25496670604448 8.7025421853315 0.120093981212646 
-6.25002972994789 8.70658016184743 0.082764379743141 
-6.2480268058032 8.71340498570356 0.0467960246260173 
-6.2541050353902 8.73489760007686 0.0100418145061885 
-6.20994675411329 8.68416188416843 -0.026081862709078 
-6.19893636523325 8.68114533626512 -0.0624719800528908 
-6.24221812106457 8.75295543173977 -0.100305669251014 
-6.27542177839117 8.81009773669724 -0.137463955343658 
-6.29564415741183 8.85108456034547 -0.175825056055299 
-6.24641093573799 8.79329432001779 -0.210954023196262 
-6.25959192264565 8.82314061535846 -0.249109462865269 
-6.26066699412485 8.83701996363383 -0.286182979953922 
-6.26983325732348 8.86241004765148 -0.324322426344209 
-6.25275949364774 8.84918192055401 -0.360053133861261 
-6.28511866024755 8.90743484781564 -0.400013128525356 
-6.26706687925451 8.89327777160478 -0.436197584826534 
-6.25509892812639 8.88840332547467 -0.473439973789988 
-5.8221066762145 5.64386091546784 7.66185679818995 
-5.82367900253342 5.67142421672144 7.5800505101042 
-5.76030808580033 5.6237357787368 7.45688921707565 
-5.64911023740027 5.52732375204851 7.27348209046507 
-5.86381579725527 5.75117661940957 7.50882127392659 
-5.7687462049352 5.68352084891737 7.30634964419158 
-5.83645948029163 5.76360586796655 7.35209245240852 
-5.79824310187224 5.73842818716014 7.26371438613198 
-5.85193253716509 5.80493545483671 7.29098643496122 
-5.76586877200951 5.73196313444005 7.14276105793815 
-5.75658585367623 5.73635759628431 7.09349079909978 
-5.86388812516925 5.85549278336208 7.18516363979553 
-5.79081885554004 5.7947990577899 7.05587076758365 
-5.75249982268083 5.76888096211405 6.96932368972233 
-5.74325781448599 5.77141752573153 6.91925638521294 
-5.77251409268288 5.81449194816967 6.91677642711237 
-5.68797528933338 5.74134481563543 6.77718102415398 
-5.65321945228545 5.71877917003164 6.69873895234587 
-5.78802245941685 5.86617362110558 6.81917708653648 
-5.89556091194021 5.98808879447034 6.90667097902967 
-5.84105669550317 5.94525421945622 6.80440762104284 
-5.83181468730833 5.9477907830737 6.75434031653345 
-5.18306377378202 5.30008654684371 5.9699655477385 
-5.16879815241017 5.29593879347665 5.91997745909579 
-5.30839900876972 5.44946568090965 6.04439687708567 
-5.3904440875092 5.54534969593974 6.10311747944464 
-6.4246962416824 6.70967970979061 6.94141980787268 
-6.46472112745106 6.76520067813762 6.94381263786093 
-6.19627285904081 6.52238132372203 6.53893326711205 
-7.73912214582404 8.48828406670663 7.07995045706616 
-7.62602519028721 8.37817436493371 6.93041661613727 
-7.6370243786114 8.40561088142211 6.89541417856598 
-5.03068277203021 5.55282429378478 4.51528734096517 
-6.12140559435653 6.76407488653808 5.45664207641171 
-6.06023249356631 6.70881434877468 5.36590561020641 
-7.57144608295045 8.40507243346522 6.61461101331381 
-7.30864971748013 8.12769700285554 6.34173168033603 
-7.4813852490161 8.33281994477841 6.44815496800517 
-5.43832066209744 6.07234669559697 4.65789383706285 
-5.29338262896348 5.92212423086367 4.50335032272779 
-5.19916149007726 5.82598993211086 4.39320116950704 
-4.90928060700579 5.51110691269021 4.11992886683105 
-7.44503795967926 8.361846778419 6.20108509348209 
-7.42544885375618 8.39354739674096 6.01320547898709 
-4.97660341120051 5.65037023286892 3.97558898272239 
-7.61494062266342 8.64925511140198 6.0356353940186 
-9.16886265957133 10.4946348959448 7.0060250048743 
-7.36400644527081 8.44518761391991 5.58697317653974 
-9.17058616741103 10.5294138116488 6.90362409543693 
-6.58122072471883 7.57203004631576 4.91909884831389 
-6.61020714959571 7.61713031806507 4.90346667105919 
-8.98194107242627 10.3926283019787 6.50782778140368 
-6.73248095194377 7.8543479547119 4.69223737421093 
-9.07041659997448 10.6091381912485 6.21900868436695 
-8.9483867621304 10.4825233838912 6.08558720289702 
-7.20711237372055 8.47003538529737 4.8217309682181 
-8.66730283832104 10.4556444513303 4.9388453787314 
-7.32664578202837 8.95599453756411 3.81756440411964 
-7.2000085490445 8.81344708840749 3.71259446231305 
-7.20607636155002 8.83271159711928 3.6759587007298 
-8.67728459481984 10.6617264935115 4.33084838156048 
-7.17453812199718 8.84345089853384 3.5042626649211 
-7.14344051825785 8.81664502006377 3.45006119801634 
-7.12111457731726 8.80228568750256 3.40062206730318 
-7.10948546165931 8.80093164252888 3.35736974172194 
-7.12823700623276 8.83635849360312 3.32731131146679 
-7.13721841562097 8.8593387987685 3.29243531907144 
-7.18142966168864 8.92560264377556 3.27381901159384 
-7.11598800122879 8.85792986536927 3.20552414843411 
-7.10146574375738 8.85193107482861 3.16011353082947 
-7.18600703877421 8.98204212493726 3.12054894936564 
-7.05576849997958 8.83189513178911 3.02611918590564 
-7.05103683276264 8.83741393804392 2.98512760760569 
-7.0629113839643 8.86503898877628 2.95240990723375 
-7.01892473927739 8.82058993820488 2.89529308583135 
-7.04355480483612 8.863818589621 2.86783869974437 
-6.97888585281393 8.79559393058923 2.80365956219922 
-7.01142225628166 8.84792353889535 2.77840270080555 
-6.96559148591334 8.82584802443829 2.64675631566905 
-6.96272361597265 8.83471241971197 2.60838477481599 
-6.69234123903676 8.50477439442534 2.47088013602838 
-6.96100259980029 8.85689742158235 2.53162569983115 
-6.94730437798644 8.85071695785094 2.48941531363348 
-7.91523772931095 10.0945863923031 2.79144916618642 
-7.85358502861127 10.0308179445944 2.72719880941394 
-7.83522248415978 10.0205446159214 2.67865917962967 
-7.8178688291763 10.01249939291 2.63005632725742 
-7.8172545401082 10.0232148253573 2.58721776726352 
-7.88760315861042 10.1273564666101 2.5680237093279 
-8.13790415811818 10.5892389923892 2.2040615357732 
-6.9363825009109 9.04152444046386 1.84244014822928 
-8.17543531927682 10.6674968432321 2.12557956516202 
-6.89906194043821 9.01560634478802 1.75594829631658 
-6.86153163337605 8.97915448985565 1.7090947729908 
-6.74477279029518 8.8375840171848 1.64280768236674 
-6.89644954402897 9.04758469104547 1.64132665521141 
-7.27512511852398 9.55677887575918 1.6916794505201 
-7.20598953580129 9.47760908371701 1.63547567982326 
-7.25775544618109 9.55871553137882 1.60749876922688 
-6.96946041512061 9.20445001700633 1.46715799180832 
-6.25905447575839 8.53550316068795 0.475187607812817 
-6.2720301537864 8.56386862628974 0.440694144974262 
-6.25202233815876 8.54785365185208 0.403602191104831 
-6.24999895894485 8.55560742482161 0.368032358823221 
-6.27001602908586 8.59511341873095 0.333333234942032 
-6.29306980561859 8.63814667484992 0.298164368997996 
-6.2970993841189 8.65388392135209 0.262053575426209 
-6.2951582042756 8.66330705830445 0.225051277564889 
-6.28216090861027 8.65713345562623 0.18827063402492 
-6.30119996143398 8.69571050042218 0.153117761359605 
-6.28319950766085 8.68192363164603 0.116017810850813 
-6.28024943834955 8.68911866293687 0.0790787355774643 
-6.2632065468245 8.67718969238752 0.0428310566883141 
-6.25523286433618 8.67770040669383 0.00597119728165607 
-6.23015010831161 8.65463090783692 -0.0301260465134714 
-6.2261706944631 8.66052678257966 -0.0666033763633349 
-6.23623277560842 8.68517645172786 -0.102856608389784 
-6.29159999179898 8.77388244338121 -0.141373697332748 
-6.2966897869872 8.7922180029796 -0.17846320770012 
-6.2575346638181 8.7490955531691 -0.214267577946562 
-6.31298407937927 8.83947090880528 -0.254217132469238 
-6.32815197307222 8.87247425892085 -0.291982045942091 
-6.32823861015264 8.88319655242132 -0.329390863278286 
-6.3756686162835 8.96150243063655 -0.369588505542454 
-6.37780390445061 8.97798009200815 -0.407640739426692 
-6.28623047183414 8.86021953306364 -0.439661574670857 
-6.27624942749131 8.85850214170845 -0.476513437438157 
-6.24611218613903 8.82744916931889 -0.512014493994495 
-6.15941880212131 8.71749041071626 -0.541486511019095 
-6.16152321813772 8.73266891553976 -0.579021773531234 
-6.16968059186836 8.75583089389589 -0.61709799733355 
-5.77202363121473 5.54920744645391 7.55047560987768 
-5.88174668246052 5.66742740652468 7.65266463900193 
-5.83992619809141 5.640755173873 7.5569786123432 
-5.82522670375207 5.64067970228786 7.49686486146814 
-5.79737873222664 5.62721501357407 7.42056508840472 
-5.82059854507144 5.68874491932261 7.328706800816 
-5.90902780005281 5.78779971123401 7.39884309253238 
-5.87973590352379 5.7974421124508 7.24080825061054 
-6.05465439621133 5.98371191941576 7.41575116539601 
-5.86324921100089 5.80790040012217 7.14094571925132 
-5.82021452828413 5.7775192320701 7.04898489201101 
-5.7385688667481 5.70901684510284 6.91154778107603 
-5.78854112456992 5.7710610404032 6.93346130647489 
-5.84797555425752 5.8433305370041 6.96568535925963 
-5.81053188427578 5.81760097557221 6.88142301859767 
-5.76353380506992 5.78313380363185 6.78856269042846 
-5.92103969861155 5.95265508234291 6.93378483431466 
-5.34439247114322 5.38748681033354 6.22446787568796 
-5.5197624917285 5.57486037854947 6.39128979114149 
-5.37452854992739 5.43980269653327 6.18829630303026 
-5.91316952465954 5.99571220742916 6.76975849255582 
-5.18757957833596 5.27270820458857 5.90563393857384 
-5.2884668014364 5.38737345823693 5.98640806128428 
-5.40931775079335 5.52063141625959 6.08706141904405 
-6.18495757465903 6.46085470378118 6.48813001860039 
-5.11522820152387 5.57434792761636 4.6531480377635 
-7.58179627378334 8.28220115621209 6.80370497881287 
-5.02349884120518 5.50338773442447 4.48069005247645 
-7.59994394637017 8.33057154539511 6.73068954002724 
-6.17957196601638 6.78818639716719 5.4379044489514 
-7.23905286183764 7.96297827393493 6.32736250005475 
-7.15258609586527 7.89537739186829 6.16849448942723 
-7.50732966018901 8.29900070820825 6.43072977214046 
-7.45889161868664 8.26027272024201 6.34565514305565 
-5.22388878156764 5.80094947236835 4.41612402786663 
-5.28395959296341 5.87673250907249 4.4369636273245 
-7.66053301329974 8.52398449159526 6.38405422856455 
-4.59739155169004 5.13174247490416 3.80799952652727 
-7.32841099011211 8.18262463482009 6.02269992718966 
-4.57521679227023 5.12459875679338 3.73796577446249 
-4.62273739818858 5.18625902255262 3.74988008280494 
-7.44755297794902 8.35545362203855 5.99265127094275 
-7.58854892375957 8.54246712968065 6.02056126757645 
-7.53703288663331 8.49668461729516 5.93659180046317 
-7.62298443436406 8.60849441307139 5.9614311205011 
-7.61379375338914 8.61140118412358 5.91044832178408 
-7.42650034604962 8.45299627531499 5.5980996164879 
-6.53072784543413 7.44776684357748 4.88655261711421 
-9.10425781135831 10.5865794066979 6.14975171972217 
-7.17774011244844 8.37452843875519 4.77039636363705 
-7.44640707348989 8.71444148161966 4.86683820489738 
-8.48851808370935 10.284741393995 4.43624234531632 
-8.45203477611466 10.2547647386436 4.37068041500277 
-7.43459599937318 9.03507513591475 3.80583236579967 
-7.29523412418294 8.87822324262248 3.69508213833601 
-7.26421871981422 8.85308672813524 3.63944820585155 
-7.23021793627369 8.82479315887309 3.58336852122231 
-7.14928160130306 8.73798265652021 3.50490556913137 
-7.19143415829631 8.80164818843104 3.48721275250073 
-7.15740250260508 8.77205546262078 3.4316500392436 
-7.19274984851567 8.82736045251104 3.40998393545304 
-7.19387624721478 8.84161000822114 3.37199492415678 
-7.19210950410043 8.85121481836426 3.3318476208371 
-7.15800606612007 8.82218083423267 3.2775989246231 
-7.1013769785974 8.76509670350845 3.21326935198392 
-7.17004945377277 8.86219754244833 3.20603994133525 
-7.12811146017254 8.82350385974807 3.14827970338481 
-7.14406691709443 8.86723636441731 3.07853571523347 
-7.08639806795307 8.80662497148347 3.01478633655437 
-7.10612762984383 8.8429807716711 2.98518165508334 
-7.06702103375567 8.80633352144159 2.93061365190051 
-7.00336097120147 8.74033696807133 2.86637129176739 
-6.89055268648301 8.61211454620995 2.78341563764237 
-6.34066015850581 7.93648066597494 2.52806224781997 
-6.27282097350137 7.86268917331599 2.46670081212499 
-6.93894189243281 8.70743624431588 2.69024577651258 
-6.9853088817368 8.78924880158114 2.63317871231522 
-6.98050543223073 8.79532634951464 2.59350115105839 
-7.01108580106386 8.84579805959397 2.56733679209647 
-6.9511633710499 8.78333562948653 2.50805443255821 
-6.95130133535024 8.79442813042172 2.4697301210144 
-6.94250361720436 8.79512051791879 2.42967003020077 
-6.97217775100932 8.84410453720605 2.40173790541159 
-6.9417606183493 8.81823446890257 2.35336470400006 
-6.93296290020342 8.81892685639964 2.31330461318643 
-6.88177084375602 8.76538370999144 2.25942000974844 
-6.9055460015065 8.80749487805021 2.2292823636266 
-6.86714033156686 8.77085448887389 2.18014410310147 
-6.84651378916131 8.75650201736588 2.13618994099462 
-6.94925042974945 8.89965266032803 2.13018178174573 
-6.90493536667384 8.85391131426172 2.07895644842452 
-6.81220387973319 8.74725011730559 2.01393059239703 
-6.88337653389298 8.85121008536757 1.99793676586838 
-8.18288724302107 10.5886116401786 2.15132184148083 
-8.14777491557272 10.5573495503855 2.09713636785479 
-7.05928246494231 9.16138960611238 1.77903710883707 
-7.98238593933026 10.3716933735248 1.96716631516856 
-6.77723566248796 8.81974544978632 1.6347734675968 
-6.75947138974517 8.80873856729717 1.59349456888546 
-6.84480864840783 8.93126379552067 1.57549532892948 
-7.19488478148335 9.39996814878608 1.61654510617635 
-7.23576901277008 9.46565953000808 1.58564484444298 
-7.20816282255291 9.44276484328874 1.54086240063457 
