-9.326207774 47.71469914 5.221773214
-8.419222604 47.51575785 9.034334062
-8.416933648 47.51126663 8.987887883
-8.70642486 45.83966861 7.461639776
-8.411736238 47.49683181 8.886735578
-8.41429242 47.49920385 8.83080145
-8.415359622 47.49429845 8.780601553
-9.34443026 46.96797334 5.400256771
-8.512043023 48.54870681 8.887177215
-8.418627469 47.482611 8.672730389
-8.435426667 47.44433333 8.559806667
-8.326413333 46.89306667 8.293706667
-8.32508 46.8864 8.27604
-8.324746667 46.88473333 8.25904
-8.325746667 46.89073333 8.24404
-8.330553333 46.8824 8.192006667
-8.706241224 47.62745185 6.086341619
-8.962685471 47.3322591 4.614348763
-8.355214097 46.9443837 8.032402748
-8.124722784 46.24177809 7.832593858
-8.195413333 46.29906667 7.785266667
-8.19408 46.29073333 7.768266667
-8.193746667 46.28973333 7.7516
-10.59053333 45.60733333 6.405693333
-8.23148 46.32873333 7.71696
-9.19082369 46.68525614 5.63514494
-9.071257206 47.33769663 5.751956763
-8.355717034 46.72274507 7.358715297
-9.276990908 44.99489139 7.169639835
-8.386273333 46.29166667 7.280793333
-8.209483094 45.97867114 7.212668316
-9.011808958 48.9458262 7.483604793
-9.013500646 48.95147062 7.46543067
-8.32960746 47.42821306 7.220720707
-10.79060626 48.62660653 4.172824225
-8.013703906 45.18830854 6.703384609
-8.028906667 46.3684 6.640786667
-8.03124 46.38106667 6.626786667
-8.226976703 47.09797373 6.793478809
-9.178223128 47.15059536 3.586821945
-8.064890389 45.25194725 6.457220555
-8.235828639 47.12457088 6.658470447
-8.240107712 47.13273357 6.638227065
-8.283695079 45.69151552 5.908665389
-8.375875575 45.88864463 5.642522686
-8.357517382 45.81078371 5.589419232
-8.386052614 45.87554605 5.526924967
-8.786155947 49.99402737 5.496029822
-8.714806667 47.60433333 4.648693333
-8.4517365 47.87449986 4.549701439
-10.71765556 46.17125089 5.548139668
-10.9656 46.5044 6.59682
-9.25956 48.7046 3.717713333
-9.050769666 51.24073887 4.404573587
-8.946803556 50.64844734 4.292069005
-8.663033013 48.89290861 3.713355542
-8.663859978 48.92756994 3.683760259
-8.508204737 48.24808703 3.476748599
-10.32525894 46.91131307 3.324612129
-8.562862529 48.27415101 3.390988997
-8.545873667 48.38932267 3.30373854
-8.538441697 48.42335662 3.282829443
-8.294638013 46.93338692 2.963475108
-9.037245374 47.31888045 1.212801973
-8.405613743 48.00681544 2.284936037
-8.536148122 48.33619154 2.385501149
-8.41462051 48.03667071 2.248385705
-8.497066667 47.89146667 2.19442
-8.483273333 46.839 5.585126667
-8.300893333 48.39386667 2.787286667
-8.45482 47.93253333 2.128306667
-12.27712046 46.23274634 3.073845467
-8.420146652 47.54301334 9.444170881
-9.096959188 46.56791335 8.380030006
-8.883030123 48.40541372 7.577588428
-8.427031487 47.50317395 9.27703347
-8.442922101 47.58740046 9.242800339
-8.439334719 47.54580842 9.179492253
-9.418369557 48.5088147 6.475254174
-8.427884663 47.47426358 9.048869367
-8.443080875 47.55918095 9.075602748
-8.733308635 47.55745047 4.583094062
-8.424982127 47.46899883 8.938293287
-8.422073007 47.46648828 8.88128818
-9.218499856 47.11072591 7.675900097
-9.007196707 47.50694648 5.146516246
-8.279193322 45.91080593 8.486703611
-8.433026117 47.47213266 8.685236259
-8.44154 47.4618 8.627926667
-8.453093333 47.45533333 8.57914
-8.451426667 47.44633333 8.560806667
-9.441486667 47.1572 6.4711
-8.333413333 46.84573333 8.252706667
-8.396053333 47.9894 4.897506667
-8.342886667 46.8644 8.18934
-8.356405282 46.90006176 8.119993287
-8.351456456 46.87215539 8.098364178
-8.89052991 47.30358742 4.549192239
-8.378705333 46.94330969 7.97889105
-8.203413333 46.2574 7.7786
-8.382239531 46.95408643 7.939365042
-8.239813333 46.29006667 7.74296
-8.245146667 46.3184 7.731626667
-10.698 45.64293333 6.85176
-8.490738427 46.57931435 7.556044122
-8.492573 46.59308634 7.539267841
-9.130036063 45.45040016 6.852054291
-8.181094275 45.78792043 7.360991284
-8.193983229 45.85158539 7.305151256
-8.198933535 45.85100371 7.242232992
-8.734986757 48.39117363 7.316768321
-8.348236654 46.72310994 7.242834894
-8.432772737 46.45387099 7.668524702
-8.351694395 46.7501237 7.213510733
-9.464061777 47.29178642 4.38466933
-8.038149554 45.21775787 6.811655069
-8.029556249 45.19246424 6.686185902
-8.036601009 45.19293225 6.631756843
-8.043673803 45.18435526 6.580647024
-8.055099861 45.18416567 6.529458179
-8.075700557 45.231853 6.486411982
-8.816749207 48.19374655 6.719520522
-8.097529088 45.23761789 6.431746356
-8.103906605 45.27328366 6.421054217
-8.92014 48.8938 6.756426667
-8.231968973 46.26206385 6.1767297
-9.541927254 46.69832763 4.907547866
-8.295853031 45.67092473 5.890496607
-8.628131118 44.9106078 6.83112506
-8.227320233 45.42518605 5.877127889
-8.231059525 45.44317337 5.863215006
-8.243834663 45.49637021 5.846985302
-8.548760923 45.66889594 6.054556981
-8.403816231 45.87783756 5.527961735
-8.971217393 49.21865275 4.967908229
-8.819314542 49.98526384 5.494180812
-8.742246667 49.47166667 4.64222
-8.787717015 49.27261022 4.637272869
-10.78138309 48.93474833 3.251425613
-9.117893333 51.3084 4.42008
-8.993846852 50.62533371 4.290305227
-8.675963675 48.90454149 3.71540397
-8.710026017 48.89385992 3.691480156
-8.709327696 48.90725749 3.675789006
-8.54628332 48.23911806 3.443728724
-11.10895092 49.22263129 4.678881162
-9.46263271 47.39049575 4.114431616
-8.562005873 48.38705277 3.30427447
-8.335097573 46.92469599 2.919159384
-9.021340084 46.48929526 5.032865349
-8.515066667 47.9028 2.227753333
-9.346753333 47.15053333 4.492113333
-9.36668 47.28826667 3.673206667
-8.512733333 47.8908 2.162086667
-11.18261317 46.18060315 5.442715283
-10.71040954 46.19773103 6.802305267
-8.462486259 47.61337972 9.292019608
-9.459358791 46.61790638 5.89192517
-8.456446581 47.54215138 9.132445218
-7.705322157 48.59069218 5.160094353
-8.460623766 47.56595793 9.052719594
-8.295934835 45.90868858 8.483531082
-8.467093333 47.43866667 8.591473333
-9.287007561 47.71087272 6.282758272
-12.047 45.49326667 5.22836
-8.34908 46.83973333 8.283706667
-8.348746667 46.83773333 8.266706667
-8.34908 46.84006667 8.250706667
-8.356886667 46.84906667 8.20234
-8.361246853 46.85308257 8.156201065
-8.360532793 46.84836188 8.139828629
-8.372878411 46.87746285 8.068847467
-8.37315794 46.87520283 8.047002183
-8.426168733 47.67404739 5.642249346
-8.25148 46.26173333 7.769293333
-8.337553333 47.6778 4.10612
-8.26248 46.32273333 7.747626667
-8.257146667 46.29373333 7.726293333
-8.206566667 45.7418 7.53904
-8.2036 45.76073333 7.491493333
-11.09981108 45.54969926 4.74385862
-8.390388472 46.52333546 4.867258658
-8.196789666 45.78170416 7.3687293
-9.221092258 46.4328351 6.016793675
-8.204476202 45.81904579 7.290477226
-8.214706386 45.85072595 7.244572523
-11.0482866 45.67892509 4.779565058
-8.433453333 46.87473333 7.22158
-8.416606667 46.28233333 7.246793333
-8.42812 46.8434 7.18458
-11.09320042 46.07927742 4.773455886
-8.4849107 47.15002398 6.967262612
-9.137274946 47.08723644 3.645845297
-8.497981376 47.28362102 6.943591589
-8.06262531 45.18759967 6.574602747
-8.06817156 45.1691145 6.527785725
-10.49228157 44.31466274 7.283764038
-8.256061435 47.03888329 6.753355151
-9.59437336 46.97181672 5.983486479
-8.947078794 48.8235007 6.707407281
-8.270583963 46.23100866 6.140200044
-8.271897427 46.23503628 6.124767426
-8.421284398 45.8817882 5.606129932
-9.011704131 49.19832757 4.981805025
-9.165126667 51.35173333 4.44236
-9.42672 47.31593333 5.96546
-9.359971377 47.98831756 6.242110355
-8.746424007 48.79987956 4.07602472
-8.767487627 48.88263264 3.686328923
-8.763523866 48.89072589 3.670007966
-8.589010557 48.2239473 3.422056037
-9.443951832 46.23142235 3.662367058
-8.594599729 48.28572859 3.356924181
-8.589828419 48.34169752 3.328832544
-8.588538865 48.34584395 3.311112478
-8.776026667 47.98406667 3.244213333
-9.592466667 49.16993333 3.64844
-8.615478199 47.4775666 2.440089463
-8.402972904 46.95678397 2.837290608
-8.40245547 46.95868157 2.822276475
-8.476128212 47.0613238 2.723596676
-8.583122753 48.51699218 2.484540106
-8.726321225 46.52219436 4.906707808
-7.528136176 48.79252017 2.374525994
-8.86076333 47.15007047 3.884063028
-7.584567423 48.76505315 3.033802179
-8.456809251 47.52681192 9.387511888
-8.462516845 47.52973918 9.321869227
-9.261041376 47.453629 4.44489517
-8.482159484 47.59109144 9.111594311
-8.480839258 47.58233925 9.061121627
-8.54711121 47.16530478 4.28791498
-8.46854 47.42546667 8.63926
-8.332769378 45.93124497 8.265500461
-8.486426667 47.454 8.56314
-8.355566941 46.06369677 8.19396162
-8.357113711 46.06922797 8.177936341
-8.589796597 47.46512686 8.323343183
-8.582893335 47.5076913 8.305106825
-8.582873333 47.63213333 8.298226667
-8.58354 47.63546667 8.28256
-8.389782119 46.87745803 8.065886421
-8.776638095 47.83781614 7.198806192
-8.463319585 46.43203078 7.895239024
-8.27148 46.28406667 7.759293333
-11.60173333 47.0868 4.312173333
-8.2209 45.73446667 7.555373333
-8.877946667 46.67286667 6.040586667
-8.218266667 45.75506667 7.492493333
-8.218266667 45.75506667 7.476826667
-10.52521117 46.29227671 4.665878319
-8.208457772 45.75412511 7.378290589
-8.212117807 45.78067222 7.33673527
-10.29966386 46.2821971 6.400123232
-8.809825387 47.49861625 4.683837294
-8.251727101 45.9203904 7.182280207
-9.134513333 48.81 5.368966667
-8.258569103 45.97377638 7.174405467
-9.30191615 47.06479444 4.040700847
-8.470076589 46.96629225 7.10092797
-8.48690412 47.04672402 7.0279374
-8.491748345 47.07621649 6.982890648
-8.515384081 47.28372377 6.962016727
-8.534493365 47.34766235 6.965293305
-8.930183407 47.21565961 3.823478982
-8.971206667 49.09513333 6.976526667
-10.72147101 48.35540213 4.013493665
-8.968206667 49.07846667 6.90586
-8.797206667 46.68313333 6.775773333
-9.551066667 47.05293333 5.24188
-8.788146667 48.0468 6.394813333
-8.444372191 45.89125746 5.657197622
-8.443680794 45.88979726 5.625455814
-9.120827374 47.9893785 5.789851883
-8.024049536 47.49878474 3.814015665
-8.874142922 49.21343917 4.657040952
-8.84735694 49.2432925 4.628063585
-8.73976174 48.10238795 4.201630407
-9.091536009 50.58528303 4.285749512
-8.766268454 48.79270411 4.058350649
-8.821307153 48.86794279 3.688898798
-8.818394823 48.8730263 3.671994
-8.475104453 46.88504053 3.479982011
-8.606652081 48.22931799 3.404321891
-9.225314832 47.53955459 1.858017841
-8.615342879 48.30105507 3.344222138
-8.615070574 48.30094556 3.327136007
-10.8744 46.06833333 5.735013333
-8.445590931 46.97747946 2.803841917
-8.471324087 47.01669573 2.768992522
-8.195678977 47.81853837 2.386209864
-8.603060161 48.52583672 2.487707273
-8.599337798 47.82916009 2.253829335
-8.599537154 47.84455319 2.238861484
-10.52143519 47.32146605 2.856787678
-8.593435194 47.84255052 2.205605012
-8.591096009 47.83964237 2.189630208
-8.595497168 47.83144972 2.172882173
-8.50895262 46.61208425 7.156830858
-8.489378908 47.55038788 9.16927541
-8.499782052 47.59983068 9.11281626
-8.327645196 45.8787546 8.703886572
-8.575726494 46.57748778 4.843939636
-9.161351608 46.9222225 4.291712345
-8.320358682 45.87714499 8.553229941
-8.40402805 48.59528628 6.597023551
-8.332473536 45.89018444 8.445264513
-8.493426667 47.40666667 8.604806667
-8.502224454 48.31822608 8.648185701
-8.347279711 45.92543945 8.267013723
-8.50176 47.45266667 8.563473333
-8.612206667 47.70713333 8.378893333
-8.365509064 46.04537368 8.178321063
-8.49782 48.2734 8.491473333
-8.606556332 47.46041897 8.291433968
-8.598695578 47.51145543 8.273068893
-10.86738225 46.07326221 5.562862045
-8.430926797 46.95829349 7.977326786
-8.919866667 46.63833333 4.543213333
-10.77853333 47.68493333 4.524273333
-10.78707695 46.33318556 5.654130315
-8.2293 47.23473333 4.748553333
-8.291146667 46.30906667 7.715626667
-8.291813333 46.3114 7.699626667
-8.519214546 46.42819357 7.630940569
-8.958669275 47.13058495 4.123614988
-8.44194 46.24966667 7.33946
-7.508160504 48.1544422 4.761056359
-8.261965725 45.90693405 7.238015261
-8.484272843 47.46724547 4.673011735
-8.450759935 46.63063747 7.297647547
-8.45494 46.32233333 7.25546
-8.591235044 46.58650787 7.394991096
-8.487176197 46.97813389 7.13157828
-8.489059687 46.98908858 7.115852052
-8.482490646 46.95278204 7.097541128
-8.594471914 47.37372456 7.085020274
-8.505149347 47.06704829 6.986122778
-8.521061084 47.19135656 6.950374734
-9.172982397 46.79886915 6.284374623
-8.791725692 48.45424914 7.081200188
-8.51319974 47.13427075 6.880731357
-8.162885452 45.21571453 6.432663591
-8.550653969 46.511996 5.996284533
-8.201751676 45.21599337 6.380679649
-8.984873333 49.0858 6.89086
-8.973473333 48.9088 6.74276
-8.344252735 46.13854604 6.103153996
-8.349646892 46.15264921 6.088213036
-8.372177245 46.16325531 6.064437203
-8.376311429 45.7191622 5.796895604
-8.436852714 45.8750966 5.736151568
-8.582006096 45.63187707 6.057047794
-8.424075683 45.82440966 5.701571922
-9.220573333 49.8404 5.75286
-9.211906667 49.79306667 5.72986
-9.296472375 46.20419055 3.969495842
-8.303240551 45.47526761 5.657587825
-8.690249523 46.29224916 5.029053671
-8.73552533 48.10149309 5.224654112
-9.999095128 47.73890669 5.40134007
-8.891598682 49.21238482 4.640945156
-8.778693333 48.32406667 4.240106667
-8.753358139 48.08839853 4.200627851
-9.146475331 50.57728322 4.280766322
-8.50194982 47.17937434 5.708632351
-9.024868979 48.32478743 5.271593955
-8.488714707 46.89816397 3.688227025
-9.294194944 46.73775822 4.217563528
-8.488542792 46.89996534 3.611590057
-8.488561489 46.89589665 3.554932436
-8.491161832 46.89593698 3.502688597
-8.497916541 46.88529593 3.444314296
-8.50064507 46.894546 3.425510717
-8.528292217 46.89370058 3.326860463
-8.620037325 48.21572085 3.386026254
-8.629724881 48.27644556 3.345864478
-8.811693333 47.99706667 3.263546667
-8.813026667 48.00506667 3.231546667
-8.508243276 47.05858037 2.741416559
-8.5187 47.086 2.710613333
-8.535493333 47.13666667 2.67692
-8.54816 47.20633333 2.665253333
-8.762330182 47.59058918 2.344138136
-8.644743762 47.80124817 2.253082386
-8.877828518 47.88968715 2.968600593
-8.640812703 47.79868407 2.188261151
-10.68378418 48.73220002 2.495230232
-8.644332257 48.57231873 1.678644631
-8.50399158 47.53986523 9.178171467
-8.810371836 46.36135142 6.80149638
-8.341799727 45.83667873 8.787669822
-8.33937529 45.85019805 8.72774737
-8.337715657 45.86274096 8.664789718
-8.337855169 45.86620431 8.643092013
-9.015744936 46.18969084 7.600738978
-8.336905836 45.88199288 8.555461573
-8.336368948 45.87970962 8.501084772
-8.346999018 45.87600602 8.438418161
-8.811800657 46.01478497 4.754488106
-8.353928175 45.80998054 8.336684839
-8.365053139 45.87464497 8.297971228
-8.358090483 45.8332242 8.276879054
-8.359797053 45.89688028 8.235744382
-8.368906356 45.98761999 8.182477564
-9.977089338 48.29114326 6.525653243
-8.390493682 46.04118345 8.125642047
-8.827110908 46.79274245 4.295564672
-8.519324153 47.44632347 8.4639509
-8.615503271 47.50078989 8.25495442
-8.508513333 46.5344 7.941733333
-8.497116792 46.48650878 7.917903946
-9.354006667 46.70493333 6.211966667
-8.432259616 46.89684116 7.918483754
-8.266233333 45.8138 7.552373333
-8.2679 45.82346667 7.537706667
-8.545829062 46.53884595 7.524750576
-8.459606667 46.25966667 7.35646
-8.458273333 46.25266667 7.339126667
-8.244286667 46.84166667 7.075373333
-9.349686667 45.82926667 5.2102
-8.466522733 46.64952638 7.3135728
-8.465504705 46.63455203 7.296296091
-9.685621516 46.45842822 5.431820015
-9.842266667 46.82373333 6.148793333
-8.459428677 46.59396566 7.242221605
-8.638331259 47.38381362 7.224566444
-8.63548842 47.37962397 7.199700934
-10.84733792 45.96736443 6.814883065
-8.612473799 47.3725418 7.088214521
-8.802966531 48.39785081 7.184710048
-8.517930521 47.04915389 6.970076108
-8.517026619 47.04248522 6.956472345
-8.508307964 46.99602696 6.911162754
-9.332573895 45.71849986 4.762088592
-8.209036254 45.20032337 6.412652558
-7.934974476 47.19074248 3.741936792
-8.216351911 45.2026476 6.376753949
-8.213816412 45.615981 6.988466348
-8.99812 49.06726667 6.845526667
-8.991473333 48.91446667 6.742426667
-8.773354943 47.88339845 6.438173376
-8.815146667 48.0208 6.39048
-9.265471763 47.76699832 2.581926586
-8.388208967 46.14556398 6.059215978
-8.850188897 47.71257808 4.524195496
-8.372875736 45.67731159 5.839209648
-7.929129711 46.65393546 3.479496333
-8.368407777 45.65465465 5.805630758
-8.439070139 45.83156905 5.733869189
-8.300067325 45.45314494 5.805993589
-8.839039731 47.82177797 4.410693644
-9.225573333 49.7784 5.744193333
-8.275850662 45.34303967 5.755003298
-8.278970672 45.35216013 5.737385497
-8.283848268 45.36903847 5.720577157
-8.285726312 47.44609823 3.297563592
-9.126003274 49.93767513 5.531123377
-8.705584962 46.28737957 5.025866026
-8.750522353 48.08032853 5.218842928
-8.753473666 48.07893025 5.20009752
-8.75598865 48.09792859 5.186192109
-9.003108176 49.05585173 4.846390605
-9.004458305 49.06173171 4.829971677
-8.931873459 49.17515993 4.672865717
-9.078693333 45.82666667 5.526866667
-8.789693333 48.2974 4.23644
-8.76092962 48.03680024 4.200238118
-9.199917401 50.56174068 4.270463449
-9.201831696 50.56742608 4.253882122
-8.855733971 48.78604406 4.020648599
-8.893932817 48.80772361 3.96459385
-8.909513333 49.8056 3.836246667
-9.388378565 50.73341707 4.010011809
-8.944026042 48.93419307 3.732716393
-8.87585244 48.86511248 3.690963605
-12.33148966 46.04094198 3.603785967
-9.108247436 47.36423352 1.204319515
-8.540131149 46.89062743 3.346685741
-9.470859346 46.94423241 4.006059111
-8.557455844 46.88402442 3.281946849
-8.842026667 48.07706667 3.284213333
-8.505309484 47.02341271 2.796576703
-8.521443159 47.04561614 2.754958789
-8.854463686 49.01666084 3.410839265
-8.55716 47.16966667 2.677586667
-8.34709166 46.33838073 5.746778416
-8.776085805 47.59048315 2.324181758
-8.69088976 47.79787316 2.204923016
-8.830053147 46.44348535 3.00007915
-8.711781259 46.95444992 8.767783997
-8.372940297 45.86381406 8.406230486
-8.503266178 46.16666743 8.113435808
-8.650206667 47.72913333 8.433893333
-8.383472554 45.88390429 8.302158351
-8.65154 47.73613333 8.385226667
-8.666086727 47.26231259 8.370226143
-8.652113386 47.34648946 8.322021023
-8.489593753 46.1760046 8.051241479
-8.855036292 47.84570632 7.148681423
-8.461406543 46.10950221 8.030140857
-8.512899766 46.48018971 7.934407549
-9.836333333 48.45973333 6.412073333
-8.543046667 46.61693333 7.92152
-8.54538 46.62793333 7.90752
-8.8899 46.3082 4.504633333
-10.85273333 46.23933333 6.485506667
-8.551046667 46.66026667 7.84752
-8.57707377 46.61855656 7.538173673
-8.554706904 46.49449094 7.503873091
-8.482606667 46.29466667 7.347793333
-8.484606667 46.305 7.333793333
-8.513632137 46.40539815 7.343617897
-8.516040758 46.56186197 7.339028834
-8.502274623 46.60719807 7.309659586
-8.897197306 45.91097186 6.102129991
-8.504713333 46.38486667 7.26864
-8.48094 46.28466667 7.234126667
-8.657814316 47.38727619 7.232593443
-8.488453333 46.8194 7.151913333
-8.49646 46.8586 7.122693333
-8.502643799 46.8868484 7.090437925
-8.511044631 46.92449509 7.050203686
-8.628803781 47.41874111 7.03592802
-8.536350685 47.05666148 6.956225923
-8.55202923 47.18778512 6.913827204
-8.862529887 48.50370349 7.01168778
-8.230577578 45.20771041 6.427884997
-8.302439941 45.29648789 6.381696364
-9.019873333 49.0868 6.908193333
-8.296356098 45.26737573 6.33118016
-9.012786667 49.04993333 6.84486
-11.87868011 45.12163069 4.555856756
-8.777971679 47.84353819 6.50709925
-8.790672802 47.8840563 6.45722784
-8.834146667 48.0298 6.41048
-8.825146667 47.98046667 6.386813333
-8.83348 48.0258 6.376813333
-8.319604817 45.51381106 5.942304107
-8.584718909 45.68787331 6.265213208
-9.048478155 46.89161192 2.118937479
-8.387444182 45.66137882 5.82243152
-8.429068862 45.733252 5.776598181
-8.315332635 47.3907369 4.950887516
-7.57814659 46.57919433 5.868641989
-9.223121783 49.23393652 5.774881059
-8.285115493 45.31589152 5.773458972
-9.329705381 48.13767505 4.656114994
-8.461084721 47.43368662 3.033712874
-8.467876733 45.83026081 5.617435507
-8.470804644 45.8428048 5.602893615
-8.723989084 46.31178451 5.067151191
-8.724008099 46.30652685 5.048765288
-9.135760154 49.88097562 5.510163945
-9.138001328 49.90120985 5.494256777
-11.76657689 47.70396498 3.502689563
-8.82068412 48.02600797 5.120329893
-9.048069709 49.03539628 4.899237433
-9.049794142 49.0416497 4.883149414
-9.431050587 49.07408053 5.592433773
-9.029433333 47.11106667 4.792886667
-8.762433333 47.88566667 4.315186667
-10.83113599 45.84375391 3.341988192
-9.248260613 50.54777405 4.246923761
-8.930548198 48.79250052 3.943408739
-9.245793333 51.40573333 4.327026667
-9.247126667 51.41206667 4.31036
-9.463791608 47.99704711 6.125571359
-8.549837818 46.71344853 5.171131828
-8.921263413 48.86102804 3.70056028
-8.909660822 48.8210186 3.678856854
-9.490186667 50.9928 3.83768
-8.610891725 46.91070192 3.187753669
-7.714346667 48.81646667 3.52542
-8.902467769 48.93304378 3.530210848
-8.680714485 46.97784492 2.932197754
-8.522029101 47.015769 2.79553451
-11.94592776 45.70992042 3.346221174
-8.907595107 48.99558449 3.415219438
-8.904723189 48.98058032 3.397486909
-8.816226667 47.56193333 2.392066667
-8.87938 46.3678 3.029773333
-8.795995423 47.60523922 2.326383921
-8.730167375 47.7616928 2.211551508
-8.72577125 47.75122205 2.19448877
-10.8639229 46.52813761 4.416616192
-8.725907289 46.94904986 8.769190509
-9.611482852 46.25968902 5.429478256
-8.397911047 45.88531737 8.301112118
-8.688278963 47.1855527 8.431293988
-9.113709022 46.56886865 4.024984539
-12.19696647 45.29751447 5.200695771
-8.189807578 47.58878599 5.273376901
-9.025158097 45.68906658 5.413504626
-9.078633466 45.80357989 5.255706866
-10.94473333 45.43093333 4.56174
-8.528167701 46.43916169 7.930722573
-8.587416836 47.097279 8.164625596
-11.57173333 47.4342 4.36596
-8.565052639 46.49096982 7.706652965
-8.558046667 46.61726667 7.85752
-7.760268423 48.22502807 4.653768765
-8.647874488 46.63466638 7.512652124
-8.569575816 46.49445608 7.504962236
-9.022513092 45.8415747 6.995266237
-9.381266667 46.82826667 5.397986667
-8.561013333 46.51006667 7.41398
-8.54218 46.52406667 7.35308
-8.307788618 45.92305949 7.232906072
-8.495606667 46.28633333 7.266793333
-10.68166667 44.657 6.38102
-8.48994 46.25533333 7.230126667
-8.48894 46.25 7.21346
-8.621553333 46.72513333 7.20332
-8.510793333 46.8566 7.122693333
-8.318547629 47.68845179 5.400334987
-8.516513581 46.88192342 7.074140487
-8.550258564 47.04773818 6.937123471
-9.081806851 46.39877991 4.921718037
-8.820173844 46.95168866 6.805090298
-9.284153492 47.5433867 4.84721679
-9.036873333 49.09146667 6.909526667
-8.337443383 45.28814357 6.316944276
-8.785244853 47.78546861 6.579494536
-8.785259594 47.78557357 6.560267235
-8.787942353 47.80138498 6.536485874
-8.048897543 46.62312977 6.044016671
-8.816786667 47.90126667 6.418606667
-8.81712 47.90426667 6.402273333
-9.255933333 48.6912 5.32436
-8.510446667 46.19506667 6.035346667
-8.512113333 46.20306667 6.020346667
-8.402635169 45.6652431 5.855492873
-8.390977909 45.62923071 5.842150322
-8.423962168 45.69009909 5.80371125
-8.457186828 45.76923891 5.763372924
-9.002386742 46.77577072 3.864838261
-9.278720772 48.04683664 5.33953401
-8.694543009 47.26078761 5.783052491
-8.692556311 47.25820375 5.76641177
-11.76613333 48.46966667 3.823426667
-9.092759836 47.55553967 5.704019344
-8.479305846 45.81460712 5.615579087
-8.486399428 45.83858507 5.603158334
-8.495168537 45.86172618 5.575229098
-11.22926368 46.13073949 4.389030238
-8.73268618 46.27367232 5.046426485
-8.786633333 47.46673333 3.260806667
-8.721506667 47.04446667 4.967706667
-9.193663499 50.08162211 5.482536094
-8.830806667 47.61333333 4.602693333
-9.56178 47.2874 5.204233333
-8.808493333 47.8694 4.29946
-8.796154859 47.92554155 4.257714709
-8.758481191 46.62263891 5.711451828
-9.295190432 50.52300886 4.234158852
-8.946531432 48.79584828 3.945298009
-8.988657138 48.82151226 3.879044217
-9.013046667 48.9096 3.773506667
-9.005046667 48.86693333 3.753506667
-8.970621491 48.88138814 3.71577868
-8.966843125 48.86348092 3.697170782
-9.505853333 50.98646667 3.837346667
-8.586694301 46.88099788 3.304832739
-9.493586667 47.16313333 3.574373333
-8.61857851 46.90056695 3.219280155
-8.623615937 46.88859796 3.182299423
-8.635669912 46.91389135 3.143394492
-8.652343098 46.93268667 3.09290174
-8.665595123 46.93610356 3.045718944
-8.890346807 49.03440686 3.754778639
-9.145977542 47.34473197 3.879167444
-8.931542026 48.99972549 3.434448599
-8.93011529 49.0010231 3.417550486
-8.83556 47.5826 2.3774
-8.783717756 47.74200985 2.257689047
-8.767580758 47.75974572 2.234063095
-8.777367102 47.71950778 2.22253188
-8.76192201 47.73189032 2.200106787
-9.530948638 48.19235199 2.686670359
-8.58511901 48.9184799 6.735727351
-8.761931522 47.53608044 4.441950908
-8.743558643 46.95419923 8.773914152
-8.496554239 46.75291145 7.463417292
-9.349514391 46.58671569 5.863386257
-8.411291463 45.86627314 8.301760873
-8.718857945 47.12179726 8.48353716
-8.456795089 46.07290027 8.162250851
-8.628971228 48.55535091 8.73816996
-8.630407689 48.56903875 8.721128409
-8.515998024 46.16938524 8.069122604
-8.567713333 46.5826 7.996186667
-8.556413251 46.26961683 8.012714916
-8.537069989 46.20169147 8.010326409
-10.7726624 48.40344212 4.407209182
-8.555168756 46.2692658 7.943194356
-8.571500351 46.41966898 7.705781314
-8.574716773 46.42701719 7.688353756
-8.615463802 46.49432837 7.650153744
-9.033660843 45.90933578 7.055033806
-8.644833981 46.54346554 7.560528268
-10.6805398 44.84212888 6.523782059
-9.208716254 46.27654359 6.495700926
-8.655193719 46.60776889 7.430330502
-8.57468 46.49806667 7.41098
-8.495812084 45.30494401 7.487849641
-8.515606667 46.307 7.285126667
-8.506606667 46.25933333 7.26146
-8.505606667 46.25266667 7.244793333
-8.328748681 45.9389317 7.174867102
-8.50394 46.24433333 7.211793333
-8.50494 46.25033333 7.19646
-8.63922 46.73246667 7.17132
-8.824576468 46.86151163 6.878338445
-9.144311921 46.39386256 6.382196171
-8.895734044 46.7117283 6.187388755
-8.830192811 46.94004035 6.856417566
-8.827362491 46.93041329 6.841140507
-8.834318037 46.87771337 6.787965267
-8.833314319 46.94546667 6.805230623
-8.973162724 48.51992145 6.855000652
-8.973991295 48.51942181 6.83710221
-9.04664 48.865 6.776586667
-8.378375829 45.30319852 6.287954854
-9.041962346 48.98574304 6.785335488
-9.093505437 48.92016297 6.696578498
-8.848146667 47.9338 6.380146667
-8.859366667 47.73626667 3.665813333
-10.48126667 46.8622 4.265526667
-8.86148 48.00613333 6.339813333
-8.387797891 45.59901466 5.872885689
-8.41396443 45.64457072 5.835829871
-8.412955242 45.63649371 5.818571548
-8.472357218 45.77129231 5.762995545
-8.48873199 45.81557919 5.728695678
-8.520132635 45.8545136 5.701336519
-10.4553926 45.28799418 4.985220101
-9.292906667 49.8664 5.756193333
-9.588466667 47.78313333 4.297573333
-8.517831109 45.85779531 5.637713634
-8.511710718 45.85152974 5.620902485
-8.505332298 45.84495751 5.555773806
-8.73584 47.03813333 4.96604
-8.73884 47.05446667 4.95204
-8.734173333 47.02946667 4.88504
-10.99226667 46.619 4.751746667
-8.84714 47.61666667 4.602026667
-9.590246667 48.55386667 4.989373333
-9.03712618 49.11754637 4.733452187
-9.534754808 47.96027985 4.727999304
-8.865741316 47.81069691 4.342756347
-8.843566667 47.84026667 4.313666667
-8.813851171 47.94120831 4.256458822
-8.893344446 48.18802396 4.215004081
-8.894785458 48.17439477 4.196765722
-10.13317031 48.84903705 5.344452079
-9.478314142 50.89795252 4.015895812
-9.001306837 48.80436423 3.876869452
-9.437022929 50.71719966 4.008272313
-9.05462 48.88586667 3.789433333
-9.022046667 48.8716 3.752506667
-9.014046667 48.82826667 3.73284
-9.518853333 50.96613333 3.85168
-8.619501311 46.87577183 3.270118734
-8.909653333 48.0182 3.315733333
-8.875693333 47.99306667 3.262546667
-9.496453333 47.11046667 3.588993333
-8.68242144 46.93645535 3.056814973
-8.656229799 48.95261339 4.733152222
-8.699386084 46.95811814 2.989746069
-8.957443041 49.02292549 3.486705689
-8.380884659 47.26950282 5.569547607
-8.858226667 47.61993333 2.394066667
-9.01658 46.73233333 2.517393333
-9.52690963 46.19268177 3.102278736
-8.828545913 47.70750278 2.275293137
-8.823192711 47.68777432 2.256285106
-8.819003458 47.68689006 2.235671478
-10.96102221 46.1925843 2.404698632
-9.524882321 46.19557975 5.046856437
-8.776987431 46.9347811 8.920651958
-8.78407046 47.00296 8.880733548
-8.778966538 47.01625718 8.828407856
-9.018119023 46.80090952 6.343433089
-8.763713537 46.97784401 8.756515753
-8.754324039 47.0458055 8.60777332
-8.748091598 47.06696292 8.560559399
-8.429247628 45.86890319 8.306177884
-8.863469296 46.766902 6.813397911
-8.664302431 48.56671366 8.802308943
-9.285760012 47.5614614 6.322607021
-8.649751621 48.5578098 8.728537444
-9.597493818 47.44171997 6.733317239
-8.584713333 46.58393333 7.99852
-8.572731895 46.26596287 8.014310515
-8.567142882 46.35811709 7.886397318
-8.591759359 46.42287664 7.70486094
-8.759016476 45.46175186 7.064588588
-8.632707804 46.48835382 7.648261166
-8.643089398 46.47887968 7.604119003
-8.724671739 46.8687034 8.279601351
-8.443521768 46.09021934 8.28154509
-8.408760418 44.78646566 7.228870912
-8.420826667 44.80713333 7.17886
-8.425826667 44.8348 7.167526667
-8.548713333 46.36553333 7.315306667
-8.52394 46.263 7.280126667
-8.340807287 45.92054466 7.212442185
-8.518273333 46.231 7.24346
-9.458115889 46.46863745 3.881946782
-9.22994 47.1284 4.346126667
-8.52194 46.25133333 7.19846
-8.838881415 46.90029074 6.854273058
-8.849616303 46.8940448 6.813987776
-8.647726026 45.86364108 6.576048567
-9.520685278 46.32632957 6.181298293
-9.018730548 48.52563074 6.810267717
-9.042216154 48.53538071 6.769388637
-8.457573848 45.34388617 6.276494219
-9.087966667 48.94126667 6.74184
-9.113477272 48.91181224 6.694352352
-8.812346667 46.5296 6.115253333
-8.83568 46.65493333 6.115586667
-8.868146667 47.9478 6.367813333
-8.825346667 46.5996 6.076253333
-8.54578 46.2134 6.02268
-8.469569865 45.71444872 5.830914864
-8.486580628 45.77037698 5.802775315
-8.491437561 45.78837906 5.78462829
-8.467207629 45.69684131 5.778806489
-8.221064688 45.42033139 6.298129185
-11.08620012 45.6327513 4.413410281
-8.551113333 46.24173333 5.915013333
-8.535237298 45.83747451 5.654041571
-8.534208724 45.8455196 5.638475966
-9.294573333 49.77906667 5.696193333
-8.530614931 45.84524632 5.606388464
-8.538619538 45.86888038 5.594492226
-8.519316095 45.82973653 5.571840357
-9.41236185 44.86049428 6.45914046
-9.261860665 49.92102353 5.561015458
-8.936442354 47.93800443 5.021006935
-8.275453333 45.79286667 6.036906667
-8.759366667 46.9982 4.832006667
-9.447163365 50.20922727 4.522819542
-9.474760336 47.90205786 3.572765762
-8.890768041 47.81600952 4.332250945
-9.434304237 50.18610053 4.468088003
-8.943692259 48.16088015 4.210923664
-9.429452686 46.60530745 5.408537366
-9.3922367 50.52143498 4.183422253
-9.1357 46.7508 6.357866667
-9.564853333 51.11313333 3.969346667
-8.709246769 48.23977752 4.256520748
-9.101665167 48.84508868 3.821096447
-9.089553372 48.82881934 3.80066998
-9.06962 48.86986667 3.7731
-9.861733333 47.10813333 5.116653333
-9.547186667 51.01846667 3.857346667
-9.549853333 51.03213333 3.841346667
-8.92532 48.00753333 3.316733333
-8.696244344 46.92675833 3.061760666
-8.712309055 46.94020633 3.008022084
-8.726455618 46.95849066 2.960891844
-8.601781806 46.68394059 6.259236697
-8.745021369 46.97805877 2.897819846
-8.818380397 47.1307676 2.769325767
-8.837044573 47.14505889 2.73139557
-9.147440764 46.54667502 4.957159016
-8.9039 47.5984 2.4892
-8.903566667 47.5964 2.456866667
-8.872226667 47.60226667 2.394733333
-10.73033333 45.192 5.907553333
-9.768113837 49.26094252 3.344470504
-9.579971402 46.65146783 3.757636061
-8.834590731 47.69035619 2.234764725
-8.980595224 50.12706694 3.333129369
-8.817189254 46.93157321 9.073775892
-8.8060258 46.92578905 9.018899483
-10.91210266 45.82610634 7.498490513
-8.793765584 46.93936498 8.929724755
-8.794910313 46.97399989 8.885166472
-8.533110188 48.95555652 6.723849099
-8.788334227 46.97175368 8.813474385
-8.781400862 46.9917238 8.76013427
-8.777300916 47.00401349 8.706002664
-8.772222442 47.01719026 8.65560469
-9.58969524 46.74497834 6.472024089
-8.593714496 46.29497377 8.091906121
-9.337880339 46.56320453 6.485958038
-8.588481232 46.26849142 8.052786059
-8.597046667 46.56626667 7.899186667
-8.617777677 46.4660398 7.709541576
-9.14397003 45.18785786 6.870654069
-8.6399616 46.4452853 7.641723551
-8.329211985 47.27040587 3.963173671
-9.267246521 46.42222993 4.119989378
-8.436518634 44.86142946 7.290966783
-8.673183188 46.50694829 7.498965527
-8.686575973 46.6056738 7.428913527
-8.439493333 44.82846667 7.16686
-8.67788236 46.5516394 7.395849449
-8.675370292 46.58318108 7.345820254
-8.666386667 45.4924 6.88716
-8.530273333 46.215 7.24146
-8.54094 46.27133333 7.233793333
-11.19626667 45.20713333 4.0805
-9.161398858 48.85674226 7.430018789
-9.174887278 48.86842925 7.374884445
-9.25336 49.0306 7.309026667
-9.254693333 49.03693333 7.292693333
-9.66106 47.693 6.28668
-9.27592 49.0376 7.23246
-9.274253333 49.02826667 7.213793333
-8.86562769 46.86667151 6.804252497
-8.869414275 46.8864772 6.790724064
-8.661158984 45.83662003 6.52434336
-8.66275712 45.83359702 6.501102571
-8.90234404 49.03765385 5.353408891
-8.47635013 45.3479883 6.277039589
-9.150380681 48.81181216 6.685908412
-9.145587896 48.87261041 6.67962676
-9.13144 48.6036 6.632813333
-8.832346667 46.55393333 6.102586667
-8.85268 46.66293333 6.101253333
-8.601613333 46.37146667 7.39394
-8.840346667 46.59626667 6.05992
-8.839013333 46.5906 6.043586667
-10.66787758 48.02096314 3.758303787
-9.890734514 46.84526528 5.492421597
-8.583247949 45.82701471 5.741376063
-10.823648 45.07711665 3.824536524
-8.818641777 47.18530462 5.835802843
-8.564113333 46.22906667 5.91368
-9.31624 49.8074 5.73386
-8.709173333 48.94253333 8.083
-8.57887822 45.92035787 5.629941662
-8.543687993 45.83913315 5.605790658
-9.348559289 50.29716026 5.690886257
-9.319035127 50.32953415 5.66174001
-9.866247531 47.00536988 5.14201857
-9.32224 49.83906667 5.618193333
-9.318573333 49.81973333 5.564526667
-8.774506667 47.07113333 4.907373333
-8.975290209 47.91773979 5.003061534
-8.802839394 46.8994064 4.809171229
-8.784279197 46.95777763 4.815602211
-8.797186667 49.021 4.138826667
-10.93826667 46.06006667 5.926766667
-8.90762096 47.65250005 4.549921091
-8.924496812 47.65899261 4.514087461
-9.295126667 51.29506667 4.546026667
-8.941378795 47.76038667 4.393291467
-8.922788991 47.78828798 4.360608704
-9.452859848 50.14765853 4.483255992
-9.015248344 47.25518143 3.823799192
-9.990362055 49.61252231 5.176159382
-8.990760288 48.11658073 4.185197338
-8.993024899 48.12995072 4.170207159
-9.434025971 50.55666016 4.159479487
-9.134490222 47.90707277 5.342857334
-9.581186667 51.11013333 3.969346667
-9.510425381 50.87260332 3.996354883
-9.136689134 48.80238592 3.825465245
-9.142936834 48.81980533 3.810596542
-9.139195432 48.78987497 3.79160979
-9.55952 50.99513333 3.873346667
-8.890953333 48.02913333 6.1913
-8.983434989 47.94955776 3.362229998
-8.959486082 47.98140837 3.331004174
-9.097753333 47.3948 2.53346
-8.996969347 48.92189738 3.505450554
-9.111036205 46.24031919 4.734287681
-8.774966667 46.9944 2.874693333
-8.791073333 47.01233333 2.832373333
-8.789406667 47.00333333 2.815706667
-8.972186921 48.25239537 3.434613984
-8.9189 47.59506667 2.424866667
-8.919233333 47.59606667 2.408533333
-8.920566667 47.6034 2.392866667
-9.027057117 47.13912088 2.670842953
-8.868400186 47.66382306 2.250194688
-8.843570658 46.90832024 9.156127652
-8.841488497 46.91458905 9.1291544
-9.512818821 46.19062234 5.699197413
-9.310487655 46.22804524 6.919441351
-8.817920147 46.93892126 8.978575157
-9.337725725 46.22620455 6.911283002
-8.808851498 46.93947827 8.904083098
-8.806121325 46.95552724 8.855113616
-9.059281975 47.33318994 4.532910276
-10.66647854 45.54689472 6.354036291
-8.803551298 47.0548529 8.716220084
-8.62138 46.61393333 8.052186667
-8.444813561 44.7691492 7.596338298
-8.446078848 44.79070437 7.538358112
-8.44670067 44.80897664 7.484888448
-8.446329816 44.82118262 7.433172946
-8.447661508 44.82752787 7.419116864
-8.443957322 44.82096191 7.366553198
-10.70360301 47.92992335 4.212042716
-8.449172433 44.84944854 7.28828508
-8.44779322 44.84091451 7.239939013
-8.45816 44.8488 7.18486
-8.471173333 44.8454 7.137226667
-8.473506667 44.8574 7.123893333
-8.432366667 46.6478 8.306053333
-8.522673333 44.92766667 7.024926667
-8.683053333 45.50073333 6.871826667
-9.180487568 48.88439941 7.472992405
-8.86016 46.36233333 5.612306667
-9.466891233 48.02364555 4.639920684
-10.04351969 48.56212092 7.640687865
-9.238276811 48.9403576 7.311637813
-8.884933517 46.97800858 6.989092011
-9.226061275 48.88030055 7.270151006
-9.28892 49.01926667 7.228793333
-8.877440819 46.93873542 6.858622439
-8.884066597 46.86471963 6.799617868
-9.38615154 46.36629266 4.181466285
-8.903614533 46.85900172 6.747119086
-8.677541656 45.83158651 6.499094452
-9.308866667 47.1872 6.38106
-8.55671644 45.38519358 6.274787802
-9.177555556 48.7416896 6.669527033
-9.170060806 48.83078822 6.670234999
-9.168213333 48.61466667 6.607626667
-8.85068 46.57093333 6.07192
-10.7233109 45.0741697 3.945830009
-8.714583651 45.88243445 5.859101748
-8.653723759 45.84148115 5.804595769
-9.199485209 46.51512194 3.243033665
-8.903246667 47.03706667 5.896373333
-8.858155598 47.15582753 5.861310149
-8.859118227 47.16412277 5.846133663
-9.32624 49.77306667 5.711193333
-9.339921447 45.89821386 5.856268854
-9.003918246 46.60372071 5.288686367
-8.553787034 45.81657774 5.586461687
-9.315575639 46.47996869 6.382927093
-9.285956728 49.20663552 5.623014126
-9.61972 47.73533333 5.540513333
-8.792506667 47.08013333 4.90704
-9.337910213 46.97091762 5.581376186
-9.15709226 49.32217985 4.412411645
-8.824215375 46.94648423 4.782907872
-9.241210589 49.12675048 4.906406199
-8.804233333 48.73273333 4.628313333
-8.965570185 47.6856643 4.483138601
-8.972123249 47.71178633 4.429787329
-8.970989065 47.72868135 4.410085597
-9.311793333 51.29106667 4.509693333
-9.470099704 50.12180185 4.480501035
-9.467546785 50.16018052 4.465617426
-8.78900264 48.87447903 2.712537759
-9.042689528 48.0968681 4.178929998
-9.043441242 48.0972989 4.162904165
-9.446561174 50.53518397 4.14268602
-9.500851022 50.77963209 4.030086755
-9.509866664 50.81524353 4.003195576
-9.489494899 50.71575047 4.009610542
-9.181404642 48.78294238 3.811883826
-9.583186667 51.02646667 3.891346667
-9.579186667 51.0058 3.87268
-9.575853333 50.9878 3.85368
-9.566186667 50.93613333 3.833013333
-9.489981401 50.71939368 3.885131715
-9.042646442 47.78843385 3.398384559
-9.626698025 47.2854717 4.061479892
-9.000206991 47.93607093 3.344979959
-8.943986667 47.9362 3.2134
-9.006738818 48.8862122 3.485007241
-9.006344784 48.89438009 3.467690797
-8.82373857 47.04294197 2.786823283
-8.844758031 47.07367622 2.741727373
-8.530157063 46.93414859 6.318400519
-11.06566667 46.13953333 3.845506667
-8.933566667 47.58606667 2.406533333
-8.935566667 47.5964 2.3592
-8.621645014 48.2521804 6.604952737
-8.862567834 46.90815619 9.166675846
-11.38272178 47.86393629 5.066614375
-8.857978995 46.92113553 9.109945457
-8.847420721 46.91286707 9.057063521
-8.84076849 46.92019767 9.012097505
-8.838087247 46.96033193 8.963486876
-8.824937845 46.93358049 8.905867919
-8.821089076 47.02265868 8.772366758
-8.821607965 47.05641688 8.721302237
-8.686594897 48.40426334 8.90569003
-8.688171569 48.41748701 8.880623429
-8.74854 47.73046667 8.437226667
-8.459262776 44.75608748 7.624760372
-8.460499404 44.76553223 7.599727241
-8.461776017 44.78650874 7.542592152
-8.462387283 44.79307488 7.522323756
-8.461323534 44.80103506 7.4680174
-8.461424718 44.81724703 7.410692126
-8.500335262 46.87111756 3.904056139
-8.859633333 46.46873333 7.555826667
-9.421468526 45.24152069 4.715289084
-8.460321988 44.82397136 7.242410256
-8.429173333 47.61986667 3.908613333
-8.487506667 44.8454 7.139226667
-8.690386667 45.45373333 6.913826667
-8.53334 44.898 7.037926667
-8.532673333 44.89433333 7.021593333
-9.208853333 48.95513333 4.905346667
-10.88673333 45.3886 5.22324
-8.68872 45.44373333 6.833493333
-8.905260428 47.00513193 7.10438069
-9.474852794 46.78891109 5.147832687
-8.903046534 46.99191094 7.057871686
-9.964494321 47.93911786 7.614230093
-8.898615815 46.96376493 6.944652327
-9.095287635 46.05158076 7.4922012
-7.586193918 48.12123496 3.845300886
-8.915789001 46.84389391 6.780225917
-8.695114979 45.86502119 6.575147738
-8.695533072 45.86439393 6.555901778
-8.698971916 45.80606777 6.465217749
-8.699697124 45.80928096 6.449622314
-8.588059358 45.38821619 6.274934023
-9.19277584 48.68121074 6.658215876
-8.75706743 45.85465377 6.252181038
-9.194382102 48.73652092 6.63663407
-9.710873333 47.5458 4.87352
-9.081333333 46.49713333 3.570466667
-8.86868 46.5766 6.074586667
-8.87168 46.59093333 6.060253333
-8.872013333 46.59293333 6.044586667
-8.873013333 46.59893333 6.029253333
-8.934710788 46.64290496 5.926804601
-8.926913333 47.07206667 5.902373333
-8.927913333 47.07806667 5.886706667
-8.8532 46.99473333 7.9574
-8.67847308 45.94417994 5.717921349
-8.652762246 45.93443146 5.686416489
-8.645917912 45.91381041 5.665772038
-8.612827225 45.91044384 5.631746169
-8.607510082 45.85632546 5.611974153
-8.647293566 47.15883994 3.25067891
-9.343573333 49.76573333 5.644526667
-9.304158529 49.17963505 5.626641691
-9.303391785 49.19451575 5.608907268
-8.98372 46.00693333 6.461353333
-8.813173333 47.09746667 4.89504
-9.332194275 47.69683783 4.833242881
-9.2847 49.12213333 4.980493333
-8.870949974 46.92079581 4.766444361
-11.09306667 46.4588 6.29992
-9.316484899 49.07658326 4.846949477
-9.725498043 47.67325223 4.429317155
-9.405856116 48.55106298 5.490448197
-8.989430118 47.72351763 4.413987646
-9.592779269 49.89058266 4.524130566
-9.495358418 50.14368522 4.484884798
-9.492554159 50.13013091 4.466864426
-10.93846766 46.2193219 5.487978537
-9.089260389 48.07477107 4.178296542
-9.1138225 48.03618189 4.157252801
-9.463559558 50.53087626 4.146324505
-9.655666378 48.91526622 3.346678191
-9.253063397 48.72233757 3.863864262
-9.232576051 48.77918386 3.840184545
-9.399228188 47.17174181 4.671676144
-9.561492464 50.88116131 3.927708353
-9.235733333 48.08886667 5.153406667
-9.594186667 50.98613333 3.85568
-9.5741 50.89026667 3.85556
-9.497402269 50.66186123 3.89899768
-9.059740466 47.79271405 3.400133807
-9.047100546 47.86295147 3.381058688
-9.12117248 47.57767991 2.867153161
-9.474305057 48.42699475 2.889451428
-9.001722277 45.87821773 5.896462373
-8.951233333 47.5874 2.424866667
-10.19313333 48.06786667 4.64782
-9.987466667 50.14986667 3.369113333
-9.980133333 50.11153333 3.350113333
-8.951233333 47.58706667 2.3602
-8.951233333 47.5874 2.343866667
-9.657489174 47.23715558 5.014647256
-8.702049137 48.40324197 8.886931583
-9.099733333 47.45926667 4.499313333
-7.697346667 47.13026667 7.093626667
-8.650453333 48.2986 8.583553333
-11.31742419 45.58974158 4.841227066
-9.849362501 46.35575277 6.054600492
-9.097219037 49.09194227 5.437581306
-8.674740146 46.39869496 7.675447078
-9.505453333 46.0574 5.988346667
-8.936533333 46.61986667 7.599
-8.874966667 46.4674 7.571826667
-8.466320283 44.77589591 7.290961061
-8.472737877 44.79292642 7.237234485
-9.619273949 46.28059893 4.405103281
-8.709053333 45.4714 6.948493333
-8.50284 44.84773333 7.139893333
-10.85053333 45.19093333 6.95944
-8.54134 44.86266667 7.032593333
-8.71172 45.4864 6.887493333
-8.710053333 45.47806667 6.870493333
-8.920133333 46.24033333 5.50422
-8.58147638 44.93267113 6.930710007
-8.71272 45.49073333 6.82516
-8.921142258 47.0050191 7.081803193
-8.918201782 46.98789585 7.047790172
-9.306586667 48.93293333 7.252126667
-8.91795 46.98276754 6.947657808
-9.306586667 48.9336 7.21846
-8.711747581 45.88251958 6.625440742
-8.712116508 45.88369626 6.608464364
-8.711468445 45.87022216 6.575551699
-8.668147659 46.55870568 4.269940209
-8.797608755 46.53380869 8.239587598
-8.711846098 45.75618782 6.421009879
-8.721856219 45.75122358 6.37297768
-8.629456542 45.40147569 6.273289117
-9.546772632 49.42482909 5.222736886
-8.834809765 47.47447127 4.334154741
-9.181177439 47.02396418 2.208954079
-9.233199156 48.10436928 6.485319222
-8.880013333 46.5536 6.088253333
-8.884346667 46.57693333 6.07492
-8.883013333 46.56926667 6.057586667
-10.64773333 45.33353333 5.473466667
-8.935536471 46.61325627 5.975685586
-9.4039514 47.02655998 3.641057023
-8.5901 48.09853333 8.113566667
-8.946913333 47.09473333 5.889373333
-8.94758 47.0984 5.87404
-9.423473829 49.04503295 5.880524027
-8.659126802 45.88776762 5.665102588
-8.662078855 45.91064255 5.651576211
-8.675852401 45.88779452 5.644105336
-9.352906667 49.73206667 5.658193333
-9.346287922 49.14601674 5.668029696
-9.346741474 49.16390178 5.650388156
-8.835182168 46.36925677 5.030392994
-8.841377998 46.38152598 5.008518712
-9.2937 49.08713333 5.027493333
-9.296366667 49.10146667 5.012493333
-8.831173333 47.1138 4.880373333
-8.906403327 46.89858952 4.755428273
-8.929720122 46.87254983 4.731791697
-9.32746 49.11733333 4.881906667
-9.284199394 47.78118034 3.042311603
-9.344051626 49.01816764 4.807480151
-9.008777494 47.69100313 4.452219974
-9.612050885 49.89479648 4.524473029
-9.555630667 50.02998294 4.488976903
-9.270199296 47.20301921 4.327224243
-11.06119667 46.88497593 5.480535953
-9.528105895 50.07185331 4.433359469
-9.14667988 47.99847523 4.151044823
-9.798590833 48.35524588 5.212896136
-8.712852071 45.65300613 3.814001546
-8.715847507 45.65359795 3.789351599
-9.601766667 50.9516 3.98156
-9.290263036 48.66184436 3.880287618
-9.526241696 47.06725566 3.488536724
-9.242952309 48.76021238 3.821380987
-9.617853333 51.02713333 3.893346667
-9.75286 48.41153333 2.95292
-9.449036749 47.61186166 6.53586539
-9.495225374 50.55886945 3.954763814
-9.078037443 47.81196613 3.385272561
-8.944691643 46.96042278 2.918795828
-9.334999339 46.75445035 6.140368644
-9.490315902 48.39692636 2.910090915
-9.133746907 47.55403871 2.850575156
-9.130573198 47.55564027 2.832124577
-8.969885426 47.14550156 2.594733947
-9.125493333 47.50973333 2.427366667
-10.00113333 50.13586667 3.385113333
-10.00013333 50.12986667 3.368113333
-9.633 47.81053333 3.835433333
-8.966233333 47.58406667 2.3602
-8.967566667 47.5914 2.3442
-8.717012377 48.3953359 8.850549964
-8.716586712 48.39667832 8.831651749
-10.09553333 47.7158 6.349273333
-8.786873333 47.76413333 8.40956
-8.787206667 47.76646667 8.39356
-10.9538107 47.70175009 4.585577732
-8.658581822 46.30778261 7.971495161
-9.572725251 46.63468541 4.272583176
-8.23948 46.29966667 7.038493333
-8.889966667 46.46306667 7.63516
-9.185606667 47.17373333 5.462286667
-8.9542 46.62886667 7.615666667
-8.990381826 46.64507784 7.585326881
-8.898633333 46.5084 7.577493333
-8.480169179 44.7677867 7.292365578
-9.820866667 47.0512 5.37872
-8.722053333 45.4584 6.960826667
-8.72272 45.46173333 6.945826667
-8.516173333 44.83673333 7.137226667
-8.509173333 44.7994 7.116226667
-8.555006667 44.85333333 7.03026
-9.283946667 46.29146667 7.182553333
-9.470606667 45.3552 4.810806667
-8.713386667 45.41206667 6.843493333
-8.518266667 45.62553333 6.192093333
-8.63901 44.94064145 6.865898054
-8.726386667 45.47973333 6.806493333
-8.99706 46.32086667 5.713533333
-9.32192 48.92493333 7.249793333
-8.931661156 48.29063037 7.155535744
-9.242624661 48.22797335 6.766557342
-8.935008121 46.89546864 6.82505152
-9.408535185 46.72203999 5.365265784
-8.72447321 45.85544527 6.571998401
-8.668204085 46.90760248 6.91874719
-9.526460478 46.41878882 3.646686493
-8.737454126 45.79919086 6.421618701
-8.745771443 45.79004944 6.37584571
-8.988370997 46.49818595 4.711925839
-8.913565181 45.89021812 7.139934313
-8.773634819 45.80231196 6.25359387
-8.79500213 45.83624186 6.2106461
-8.904995024 47.80478605 6.435007366
-8.91812 47.8326 6.39394
-8.955813333 46.1216 7.1036
-8.901346667 46.5816 6.074586667
-8.688206667 47.2468 7.542226667
-8.928293333 46.589 6.021593333
-8.84387174 47.64947369 4.789928962
-9.30021503 46.57927955 5.899768342
-8.991080262 46.68744918 5.838300308
-9.476773649 49.04443017 5.987064267
-9.463696393 48.96778732 5.962729509
-8.743553333 48.04186667 4.000873333
-9.277612149 46.59576414 4.05643256
-8.853013292 46.37912244 5.046315979
-7.667054008 48.23304097 3.231950989
-8.879462692 46.40730608 4.976924767
-8.826492719 47.76192991 6.398121874
-8.902881149 46.43546902 4.91757135
-8.470690478 47.13227035 6.322040601
-9.135289098 47.80391934 4.939807259
-8.950263406 46.88375328 4.731648901
-8.4831 46.50286667 6.111773333
-9.373008131 48.99459825 4.81516803
-9.377512604 49.00581255 4.798703252
