-9.165 -9.458 1.908 
-9.185 -9.478 1.899 
-9.167 -9.46 1.882 
-9.177 -9.47 1.871 
-9.191 -9.484 1.86 
-9.189 -9.483 1.846 
-8.904 -9.188 1.426 
-9.183 -9.476 1.258 
-9.182 -9.476 1.245 
-9.146 -9.438 1.174 
-8.022 -8.276 0.464 
-8.049 -8.304 0.454 
-8.742 -9.038 3.555 
-8.78 -9.077 3.543 
-8.81 -9.108 3.515 
-8.829 -9.128 3.482 
-8.856 -9.156 3.478 
-8.747 -9.044 3.328 
-8.484 -8.771 3.202 
-8.455 -8.742 3.178 
-8.737 -9.034 3.271 
-8.742 -9.038 3.259 
-8.743 -9.04 3.246 
-8.757 -9.054 3.238 
-8.763 -9.06 3.227 
-8.764 -9.061 3.214 
-8.749 -9.046 3.195 
-8.742 -9.039 3.179 
-8.714 -9.01 3.156 
-8.733 -9.03 3.07 
-8.738 -9.035 3.031 
-8.753 -9.05 3.024 
-8.754 -9.051 3.01 
-8.752 -9.05 2.997 
-8.765 -9.063 2.988 
-8.693 -8.988 2.95 
-8.69 -8.985 2.936 
-8.67 -8.964 2.916 
-8.672 -8.967 2.903 
-8.679 -8.973 2.893 
-8.61 -8.903 2.818 
-8.686 -8.981 2.83 
-9.454 -9.777 3.009 
-9.448 -9.77 2.993 
-8.618 -8.911 2.717 
-8.612 -8.904 2.702 
-8.646 -8.94 2.699 
-8.635 -8.929 2.683 
-8.647 -8.94 2.674 
-8.638 -8.932 2.658 
-8.64 -8.934 2.646 
-9.399 -9.72 2.851 
-9.375 -9.695 2.829 
-9.384 -9.704 2.818 
-9.376 -9.696 2.801 
-9.379 -9.7 2.788 
-9.376 -9.697 2.774 
-9.369 -9.689 2.757 
-9.364 -9.684 2.742 
-9.359 -9.679 2.726 
-9.328 -9.647 2.703 
-9.355 -9.674 2.697 
-9.361 -9.68 2.685 
-9.349 -9.669 2.668 
-9.352 -9.671 2.655 
-9.354 -9.673 2.641 
-9.347 -9.667 2.626 
-9.338 -9.657 2.609 
-9.332 -9.651 2.594 
-9.33 -9.648 2.579 
-9.241 -9.556 2.54 
-9.137 -9.448 2.498 
-9.261 -9.577 2.519 
-8.879 -9.181 2.401 
-8.881 -9.184 2.389 
-8.855 -9.156 2.369 
-8.816 -9.116 2.345 
-8.938 -9.242 2.364 
-8.944 -9.248 2.353 
-8.956 -9.261 2.343 
-9.234 -9.549 2.388 
-9.174 -9.487 2.359 
-9.273 -9.59 2.316 
-9.231 -9.546 2.292 
-9.242 -9.558 2.281 
-9.193 -9.506 2.255 
-9.266 -9.583 2.26 
-9.26 -9.576 2.217 
-9.259 -9.575 2.203 
-9.243 -9.559 2.186 
-9.188 -9.501 2.159 
-9.188 -9.501 2.146 
-9.24 -9.555 2.144 
-9.227 -9.542 2.1 
-9.177 -9.491 1.914 
-9.158 -9.471 1.897 
-9.16 -9.473 1.884 
-9.16 -9.473 1.87 
-9.182 -9.496 1.861 
-9.169 -9.483 1.765 
-9.171 -9.485 1.739 
-8.895 -9.198 1.414 
-9.172 -9.486 1.273 
-9.108 -9.419 1.158 
-8.03 -8.301 0.466 
-8.036 -8.308 0.455 
-8.041 -8.314 0.443 
-8.758 -9.072 3.688 
-8.721 -9.034 3.55 
-8.741 -9.055 3.545 
-8.795 -9.11 3.526 
-8.795 -9.111 3.512 
-8.841 -9.158 3.476 
-8.438 -8.741 3.175 
-8.471 -8.774 3.174 
-9.432 -9.772 3.52 
-8.746 -9.061 3.251 
-8.748 -9.062 3.238 
-8.757 -9.072 3.228 
-8.746 -9.06 3.21 
-8.747 -9.061 3.197 
-8.745 -9.06 3.184 
-8.704 -9.017 3.155 
-8.737 -9.051 3.154 
-8.741 -9.055 3.142 
-8.746 -9.06 3.13 
-8.72 -9.034 3.068 
-8.728 -9.042 3.057 
-8.723 -9.037 3.043 
-8.737 -9.052 3.034 
-8.745 -9.059 3.024 
-8.754 -9.069 3.013 
-8.743 -9.057 2.996 
-8.738 -9.053 2.982 
-8.72 -9.033 2.962 
-8.73 -9.044 2.952 
-8.721 -9.034 2.936 
-8.687 -8.999 2.911 
-8.666 -8.978 2.891 
-8.671 -8.983 2.88 
-8.676 -8.988 2.869 
-8.69 -9.003 2.847 
-8.677 -8.989 2.816 
-8.689 -9.002 2.807 
-8.693 -9.005 2.795 
-8.667 -8.979 2.774 
-9.448 -9.79 3.01 
-9.426 -9.768 2.989 
-9.43 -9.771 2.976 
-8.608 -8.917 2.703 
-8.607 -8.917 2.69 
-8.632 -8.943 2.685 
-8.636 -8.948 2.673 
-8.635 -8.947 2.66 
-8.637 -8.949 2.648 
-9.328 -9.666 2.818 
-9.349 -9.687 2.81 
-9.353 -9.692 2.798 
-9.372 -9.712 2.789 
-9.375 -9.714 2.776 
-9.348 -9.687 2.754 
-9.292 -9.629 2.696 
-9.318 -9.656 2.69 
-9.344 -9.683 2.641 
-9.351 -9.69 2.629 
-9.333 -9.671 2.61 
-9.325 -9.663 2.594 
-9.308 -9.645 2.576 
-9.274 -9.61 2.552 
-9.317 -9.654 2.55 
-8.876 -9.197 2.416 
-8.881 -9.202 2.405 
-8.884 -9.205 2.392 
-8.9 -9.222 2.383 
-8.822 -9.141 2.349 
-8.895 -9.217 2.355 
-8.938 -9.261 2.354 
-8.944 -9.267 2.342 
-8.826 -9.145 2.298 
-9.279 -9.615 2.402 
-9.229 -9.563 2.375 
-9.268 -9.604 2.372 
-9.275 -9.611 2.36 
-9.285 -9.622 2.349 
-9.27 -9.606 2.331 
-9.269 -9.605 2.317 
-9.267 -9.603 2.303 
-9.265 -9.601 2.289 
-9.255 -9.59 2.273 
-9.232 -9.566 2.253 
-9.253 -9.588 2.245 
-9.26 -9.595 2.233 
-9.246 -9.581 2.216 
-9.25 -9.585 2.203 
-9.24 -9.575 2.187 
-9.24 -9.575 2.174 
-9.237 -9.572 2.159 
-9.235 -9.569 2.145 
-9.191 -9.524 2.122 
-9.213 -9.546 2.113 
-9.207 -9.541 2.098 
-9.202 -9.535 2.084 
-9.212 -9.546 2.072 
-9.208 -9.541 2.058 
-9.204 -9.538 2.043 
-9.197 -9.531 2.028 
-9.204 -9.538 2.016 
-9.198 -9.531 2.001 
-9.186 -9.519 1.986 
-9.187 -9.519 1.972 
-9.196 -9.529 1.96 
-9.19 -9.523 1.946 
-9.175 -9.508 1.929 
-9.182 -9.514 1.917 
-9.177 -9.51 1.903 
-9.149 -9.48 1.883 
-9.157 -9.489 1.872 
-9.156 -9.487 1.858 
-9.161 -9.492 1.846 
-9.167 -9.499 1.833 
-9.15 -9.481 1.816 
-9.162 -9.494 1.806 
-9.154 -9.485 1.791 
-9.15 -9.481 1.777 
-9.146 -9.477 1.762 
-9.136 -9.467 1.747 
-9.149 -9.481 1.736 
-9.155 -9.486 1.697 
-8.893 -9.214 1.403 
-9.146 -9.477 1.244 
-9.095 -9.424 1.158 
-8.023 -8.311 0.512 
-8.023 -8.311 0.5 
-8.038 -8.326 0.455 
-8.04 -8.329 0.444 
-8.752 -9.084 3.688 
-8.714 -9.045 3.55 
-8.722 -9.053 3.54 
-8.792 -9.126 3.527 
-8.797 -9.131 3.516 
-8.438 -8.758 3.177 
-8.741 -9.073 3.237 
-8.707 -9.038 3.212 
-8.722 -9.054 3.204 
-8.732 -9.064 3.194 
-8.744 -9.076 3.185 
-8.698 -9.028 3.155 
-8.696 -9.026 3.141 
-8.732 -9.064 3.141 
-8.727 -9.059 3.126 
-8.728 -9.06 3.113 
-8.738 -9.07 3.103 
-8.72 -9.052 3.083 
-8.716 -9.047 3.068 
-8.728 -9.06 3.059 
-8.727 -9.059 3.046 
-8.717 -9.049 3.029 
-8.723 -9.055 3.018 
-8.721 -9.052 2.951 
-8.717 -9.049 2.937 
-8.685 -9.015 2.886 
-8.659 -8.988 2.865 
-8.657 -8.986 2.851 
-8.665 -8.994 2.84 
-8.698 -9.029 2.838 
-8.687 -9.017 2.808 
-8.682 -9.012 2.793 
-8.672 -9.002 2.777 
-8.696 -9.027 2.772 
-9.416 -9.776 2.988 
-8.616 -8.944 2.721 
-8.65 -8.979 2.718 
-8.595 -8.922 2.688 
-8.614 -8.942 2.681 
-8.613 -8.941 2.667 
-8.622 -8.949 2.657 
-8.623 -8.951 2.645 
-8.646 -8.976 2.639 
-9.299 -9.655 2.811 
-9.312 -9.669 2.801 
-9.326 -9.683 2.791 
-9.315 -9.672 2.774 
-9.296 -9.652 2.754 
-9.313 -9.67 2.745 
-8.875 -9.214 2.404 
-8.89 -9.23 2.395 
-8.894 -9.234 2.383 
-8.473 -8.796 2.257 
-8.785 -9.12 2.327 
-8.809 -9.145 2.321 
-9.168 -9.519 2.348 
-9.175 -9.527 2.227 
-9.244 -9.598 2.217 
-9.232 -9.585 2.173 
-9.228 -9.582 2.158 
-9.214 -9.567 2.141 
-9.196 -9.548 2.124 
-9.207 -9.56 2.113 
-9.206 -9.559 2.099 
-9.212 -9.565 2.087 
-9.182 -9.534 2.066 
-9.197 -9.549 2.056 
-9.196 -9.548 2.042 
-9.191 -9.543 2.028 
-9.186 -9.538 2.013 
-9.198 -9.551 2.002 
-9.191 -9.543 1.988 
-9.178 -9.53 1.971 
-9.172 -9.524 1.956 
-9.178 -9.529 1.944 
-9.169 -9.52 1.928 
-9.164 -9.515 1.914 
-9.165 -9.516 1.901 
-9.156 -9.507 1.885 
-9.152 -9.503 1.871 
-9.143 -9.493 1.856 
-9.153 -9.504 1.845 
-9.147 -9.497 1.83 
-9.134 -9.484 1.814 
-9.15 -9.5 1.804 
-9.139 -9.489 1.788 
-9.138 -9.488 1.775 
-9.137 -9.487 1.761 
-9.135 -9.484 1.747 
-9.129 -9.478 1.733 
-9.125 -9.475 1.719 
-9.131 -9.48 1.707 
-9.12 -9.469 1.691 
-9.114 -9.463 1.637 
-9.105 -9.453 1.622 
-9.105 -9.453 1.609 
-8.894 -9.234 1.403 
-8.888 -9.227 1.389 
-8.904 -9.244 1.366 
-9.077 -9.424 1.155 
-8.009 -8.313 0.522 
-8.009 -8.313 0.511 
-8.04 -8.345 0.443 
-8.045 -8.35 0.432 
-8.697 -9.046 3.548 
-8.773 -9.125 3.525 
-8.796 -9.15 3.521 
-8.669 -9.017 3.215 
-8.672 -9.02 3.204 
-8.692 -9.041 3.197 
-8.684 -9.033 3.181 
-8.68 -9.029 3.166 
-8.685 -9.035 3.155 
-8.692 -9.042 3.145 
-8.718 -9.069 3.114 
-8.719 -9.07 3.101 
-8.716 -9.066 3.087 
-8.711 -9.061 3.071 
-8.717 -9.068 3.06 
-8.711 -9.061 3.045 
-8.708 -9.058 3.03 
-8.721 -9.072 3.022 
-8.716 -9.067 3.007 
-8.724 -9.075 2.996 
-8.706 -9.057 2.898 
-8.651 -9 2.84 
-8.663 -9.012 2.831 
-8.684 -9.034 2.798 
-8.686 -9.036 2.786 
-8.68 -9.03 2.771 
-8.663 -9.012 2.752 
-8.639 -8.987 2.732 
-8.661 -9.01 2.726 
-8.609 -8.956 2.684 
-8.606 -8.953 2.67 
-8.622 -8.969 2.662 
-8.626 -8.974 2.65 
-8.615 -8.963 2.633 
-8.698 -9.049 2.646 
-9.349 -9.727 2.83 
-9.307 -9.684 2.804 
-9.321 -9.698 2.794 
-9.33 -9.708 2.782 
-9.29 -9.666 2.757 
-8.862 -9.22 2.404 
-8.876 -9.235 2.395 
-8.784 -9.139 2.318 
-9.122 -9.491 2.394 
-9.131 -9.501 2.369 
-9.135 -9.505 2.356 
-9.141 -9.511 2.344 
-9.147 -9.517 2.332 
-9.147 -9.518 2.319 
-9.14 -9.509 2.303 
-9.15 -9.52 2.292 
-9.147 -9.518 2.278 
-9.155 -9.525 2.266 
-9.155 -9.526 2.253 
-9.158 -9.528 2.24 
-9.159 -9.53 2.227 
-9.171 -9.542 2.189 
-9.171 -9.542 2.176 
-9.169 -9.54 2.161 
-9.213 -9.586 2.036 
-9.207 -9.58 2.021 
-9.175 -9.546 1.92 
-9.13 -9.499 1.803 
-9.14 -9.51 1.792 
-9.123 -9.493 1.775 
-9.129 -9.498 1.763 
-9.122 -9.491 1.748 
-9.135 -9.504 1.737 
-9.116 -9.485 1.72 
-9.127 -9.496 1.709 
-9.107 -9.475 1.692 
-9.105 -9.473 1.678 
-9.103 -9.471 1.665 
-9.111 -9.48 1.653 
-9.114 -9.483 1.64 
-9.097 -9.465 1.624 
-9.105 -9.474 1.612 
-9.097 -9.465 1.597 
-9.076 -9.443 1.58 
-9.09 -9.458 1.569 
-8.886 -9.245 1.378 
-7.983 -8.303 0.534 
-7.982 -8.302 0.522 
-8.035 -8.357 0.444 
-8.037 -8.36 0.433 
-8.778 -9.148 3.53 
-8.786 -9.157 3.52 
-9.412 -9.81 3.568 
-9.352 -9.748 3.502 
-8.666 -9.031 3.217 
-8.678 -9.044 3.209 
-8.674 -9.04 3.194 
-8.681 -9.047 3.183 
-8.696 -9.063 3.176 
-9.412 -9.811 3.351 
-8.707 -9.074 3.059 
-8.707 -9.074 3.046 
-8.697 -9.064 3.017 
-8.699 -9.066 3.004 
-8.698 -9.065 2.99 
-8.702 -9.069 2.978 
-8.702 -9.07 2.965 
-8.706 -9.073 2.953 
-8.688 -9.055 2.934 
-8.69 -9.058 2.882 
-8.669 -9.036 2.836 
-8.65 -9.016 2.816 
-8.669 -9.036 2.81 
-8.686 -9.054 2.802 
-8.68 -9.047 2.787 
-8.682 -9.049 2.774 
-8.671 -9.038 2.758 
-8.667 -9.034 2.744 
-8.597 -8.961 2.669 
-8.613 -8.978 2.662 
-8.616 -8.981 2.649 
-8.609 -8.974 2.634 
-8.622 -8.987 2.625 
-9.319 -9.715 2.824 
-9.3 -9.696 2.805 
-9.311 -9.707 2.794 
-9.306 -9.702 2.778 
-9.373 -9.771 2.784 
-8.865 -9.241 2.394 
-8.763 -9.134 2.301 
-9.183 -9.573 1.937 
-9.108 -9.495 1.707 
-9.109 -9.495 1.694 
-9.105 -9.492 1.68 
-9.102 -9.488 1.666 
-9.091 -9.477 1.651 
-9.094 -9.48 1.638 
-9.084 -9.47 1.623 
-9.091 -9.477 1.611 
-9.081 -9.466 1.596 
-9.069 -9.454 1.58 
-9.087 -9.473 1.557 
-9.068 -9.453 1.527 
-8.892 -9.269 1.368 
-9.053 -9.437 1.143 
-8.025 -8.363 0.444 
-8.037 -8.376 0.434 
-8.758 -9.146 3.524 
-8.776 -9.165 3.519 
-9.407 -9.825 3.583 
-9.41 -9.828 3.569 
-8.653 -9.036 3.228 
-8.644 -9.026 3.211 
-8.673 -9.057 3.209 
-8.663 -9.047 3.192 
-8.747 -9.134 3.196 
-8.679 -9.063 3.158 
-9.397 -9.815 3.377 
-9.405 -9.824 3.366 
-9.405 -9.823 3.351 
-9.372 -9.788 3.296 
-9.416 -9.835 3.298 
-8.692 -9.077 2.977 
-8.683 -9.068 2.961 
-8.687 -9.072 2.949 
-8.687 -9.072 2.936 
-8.683 -9.067 2.921 
-8.66 -9.043 2.821 
-8.667 -9.052 2.811 
-8.653 -9.036 2.793 
-8.682 -9.066 2.789 
-8.681 -9.065 2.776 
-8.678 -9.063 2.762 
-8.682 -9.067 2.75 
-8.683 -9.068 2.737 
-8.597 -8.978 2.658 
-8.607 -8.988 2.648 
-8.618 -9 2.638 
-8.636 -9.019 2.631 
-8.598 -8.98 2.607 
-9.289 -9.702 2.803 
-9.28 -9.693 2.786 
-9.293 -9.706 2.775 
-9.38 -9.797 2.788 
-9.378 -9.795 2.773 
-8.439 -8.814 2.268 
-8.439 -8.814 2.255 
-9.185 -9.594 1.952 
-9.084 -9.489 1.65 
-9.082 -9.486 1.636 
-9.066 -9.47 1.62 
-9.073 -9.477 1.608 
-9.065 -9.468 1.593 
-9.058 -9.462 1.579 
-9.059 -9.462 1.566 
-9.066 -9.47 1.554 
-9.052 -9.456 1.538 
-9.054 -9.457 1.499 
-9.059 -9.462 1.486 
-9.04 -9.442 1.47 
-8.898 -9.294 1.369 
-8.873 -9.268 1.352 
-9.021 -9.422 1.139 
-8.026 -8.381 0.444 
-8.023 -8.378 0.432 
-8.748 -9.154 3.525 
-8.759 -9.165 3.516 
-9.454 -9.895 3.489 
-8.67 -9.073 3.173 
-9.381 -9.818 3.376 
-9.386 -9.824 3.364 
-9.35 -9.786 3.279 
-8.676 -9.08 2.923 
-8.671 -9.074 2.908 
-8.673 -9.076 2.896 
-8.67 -9.073 2.882 
-8.679 -9.083 2.871 
-8.644 -9.046 2.794 
-8.65 -9.052 2.783 
-8.677 -9.081 2.779 
-8.668 -9.071 2.763 
-8.667 -9.07 2.749 
-8.672 -9.075 2.738 
-8.673 -9.077 2.725 
-8.664 -9.067 2.709 
-8.651 -9.054 2.679 
-8.599 -8.999 2.65 
-8.649 -9.051 2.652 
-8.615 -9.015 2.629 
-8.616 -9.017 2.616 
-8.61 -9.01 2.601 
-9.292 -9.725 2.794 
-9.274 -9.707 2.774 
-9.354 -9.79 2.784 
-9.38 -9.818 2.778 
-8.843 -9.255 2.393 
-8.422 -8.813 2.254 
-8.45 -8.843 2.249 
-9.855 -10.316 2.345 
-9.186 -9.615 1.968 
-9.177 -9.606 1.953 
-9.075 -9.499 1.611 
-9.054 -9.477 1.595 
-9.05 -9.472 1.58 
-9.052 -9.475 1.568 
-9.039 -9.461 1.552 
-9.039 -9.46 1.539 
-9.04 -9.461 1.526 
-9.036 -9.458 1.512 
-9.035 -9.456 1.499 
-9.031 -9.453 1.485 
-9.022 -9.443 1.444 
-9.022 -9.443 1.431 
-8.878 -9.292 1.343 
-8.997 -9.417 1.125 
-8.023 -8.395 0.434 
-8.739 -9.163 3.526 
-9.439 -9.899 3.488 
-9.449 -9.909 3.476 
-8.65 -9.069 3.169 
-8.667 -9.087 2.884 
-8.662 -9.082 2.868 
-8.663 -9.083 2.856 
-8.673 -9.094 2.846 
-8.64 -9.06 2.783 
-8.644 -9.064 2.771 
-8.655 -9.076 2.761 
-8.671 -9.092 2.754 
-8.676 -9.097 2.742 
-8.657 -9.077 2.722 
-8.657 -9.077 2.71 
-8.679 -9.1 2.703 
-8.669 -9.09 2.687 
-8.606 -9.024 2.655 
-8.596 -9.013 2.638 
-8.627 -9.046 2.635 
-8.621 -9.04 2.62 
-8.631 -9.05 2.61 
-8.634 -9.053 2.598 
-9.286 -9.739 2.781 
-9.328 -9.782 2.78 
-9.366 -9.823 2.777 
-8.83 -9.259 2.445 
-8.811 -9.239 2.427 
-8.812 -9.24 2.401 
-8.809 -9.238 2.387 
-8.414 -8.822 2.267 
-8.419 -8.827 2.255 
-8.428 -8.837 2.245 
-8.734 -9.158 2.262 
-9.855 -10.336 2.348 
-9.859 -10.34 2.334 
-9.114 -9.558 2.009 
-9.168 -9.615 2.007 
-9.169 -9.616 1.967 
-9.051 -9.491 1.609 
-9.04 -9.479 1.554 
-9.044 -9.484 1.541 
-9.038 -9.478 1.527 
-9.024 -9.463 1.511 
-9.022 -9.461 1.498 
-9.012 -9.45 1.483 
-9.008 -9.446 1.469 
-9.02 -9.459 1.458 
-9.017 -9.456 1.444 
-9.004 -9.442 1.429 
-8.89 -9.322 1.346 
-8.878 -9.31 1.331 
-8.998 -9.435 1.126 
-8.024 -8.413 0.434 
-9.425 -9.902 3.484 
-8.625 -9.061 3.175 
-9.308 -9.779 3.255 
-8.661 -9.099 2.857 
-8.66 -9.098 2.844 
-8.657 -9.094 2.829 
-8.656 -9.094 2.816 
-8.65 -9.087 2.801 
-8.642 -9.078 2.772 
-8.639 -9.076 2.758 
-8.66 -9.098 2.738 
-8.656 -9.094 2.724 
-8.648 -9.085 2.708 
-8.655 -9.093 2.697 
-8.657 -9.095 2.685 
-8.639 -9.076 2.666 
-8.585 -9.019 2.636 
-8.602 -9.036 2.629 
-8.642 -9.079 2.628 
-8.611 -9.047 2.606 
-8.62 -9.056 2.595 
-9.262 -9.731 2.775 
-9.286 -9.757 2.768 
-8.404 -8.829 2.253 
-8.727 -9.169 2.261 
-9.827 -10.326 2.342 
-9.842 -10.343 2.331 
-9.124 -9.587 2.012 
-9.16 -9.626 2.006 
-9.157 -9.622 1.992 
-9.192 -9.659 1.986 
-9.024 -9.482 1.512 
-9.016 -9.474 1.497 
-9.011 -9.468 1.483 
-9.017 -9.475 1.471 
-9.009 -9.466 1.457 
-9.008 -9.466 1.443 
-8.991 -9.447 1.427 
-9.002 -9.459 1.416 
-8.986 -9.442 1.4 
-8.999 -9.455 1.389 
-8.978 -9.434 1.36 
-8.867 -9.317 1.317 
-8.882 -9.332 1.306 
-8.949 -9.403 1.303 
-8.884 -9.334 1.281 
-8.975 -9.431 1.124 
-8.771 -9.215 0.55 
-8.015 -8.42 0.433 
-8.016 -8.42 0.421 
-8.718 -9.178 3.214 
-8.65 -9.106 2.818 
-8.652 -9.108 2.805 
-8.648 -9.104 2.791 
-8.643 -9.099 2.776 
-8.639 -9.095 2.762 
-8.64 -9.096 2.749 
-8.648 -9.105 2.673 
-8.645 -9.102 2.659 
-8.614 -9.069 2.637 
-8.609 -9.064 2.622 
-8.638 -9.094 2.618 
-8.618 -9.073 2.599 
-8.604 -9.058 2.581 
-9.283 -9.775 2.772 
-9.31 -9.802 2.766 
-8.4 -8.843 2.255 
-8.716 -9.176 2.249 
-9.797 -10.317 2.339 
-9.823 -10.344 2.33 
-9.107 -9.589 2.012 
-9.148 -9.632 2.007 
-9.027 -9.504 1.515 
-9.008 -9.484 1.459 
-8.986 -9.461 1.442 
-8.986 -9.461 1.429 
-8.979 -9.454 1.415 
-8.989 -9.464 1.403 
-8.975 -9.451 1.388 
-8.973 -9.448 1.375 
-8.973 -9.448 1.362 
-8.971 -9.447 1.348 
-8.87 -9.34 1.307 
-8.863 -9.332 1.293 
-8.872 -9.342 1.281 
-8.965 -9.439 1.125 
-8.01 -8.432 0.434 
-8.008 -8.43 0.423 
-8.631 -9.104 2.802 
-8.633 -9.106 2.789 
-8.636 -9.109 2.777 
-8.635 -9.108 2.763 
-8.634 -9.107 2.75 
-8.628 -9.101 2.735 
-8.646 -9.12 2.649 
-8.606 -9.077 2.624 
-8.616 -9.088 2.614 
-8.617 -9.089 2.601 
-8.611 -9.082 2.586 
-8.695 -9.171 2.598 
-8.7 -9.177 2.247 
-9.812 -10.353 2.33 
-9.124 -9.625 2.045 
-9.127 -9.628 2.018 
-9.011 -9.506 1.527 
-8.983 -9.477 1.417 
-8.986 -9.479 1.404 
-8.972 -9.465 1.389 
-8.964 -9.456 1.375 
-8.96 -9.452 1.361 
-8.967 -9.459 1.349 
-8.956 -9.448 1.334 
-8.955 -9.447 1.321 
-8.922 -9.411 1.303 
-8.858 -9.344 1.281 
-8.919 -9.408 1.263 
-8.923 -9.412 1.251 
-8.015 -8.453 0.435 
-8.007 -8.445 0.423 
-8.005 -8.442 0.411 
-8.623 -9.113 2.748 
-8.629 -9.12 2.737 
-8.624 -9.115 2.722 
-8.628 -9.119 2.711 
-8.619 -9.109 2.695 
-8.643 -9.135 2.65 
-8.601 -9.09 2.611 
-8.607 -9.097 2.6 
-8.621 -9.111 2.591 
-8.634 -9.125 2.582 
-8.611 -9.101 2.562 
-8.362 -8.838 2.249 
-9.742 -10.3 2.272 
-9.114 -9.634 2.003 
-8.953 -9.463 1.373 
-8.957 -9.468 1.361 
-8.939 -9.449 1.345 
-8.947 -9.457 1.333 
-8.952 -9.462 1.321 
-8.932 -9.441 1.304 
-8.923 -9.432 1.29 
-8.847 -9.351 1.266 
-8.876 -9.382 1.258 
-8.905 -9.413 1.235 
-8.909 -9.417 1.223 
-8.922 -9.43 1.107 
-8.751 -9.249 0.933 
-8.011 -8.466 0.434 
-8.003 -8.458 0.422 
-8.611 -9.12 2.722 
-8.618 -9.126 2.712 
-8.61 -9.119 2.696 
-8.614 -9.123 2.684 
-8.611 -9.12 2.67 
-8.614 -9.123 2.658 
-8.617 -9.126 2.646 
-8.598 -9.105 2.614 
-8.611 -9.12 2.605 
-8.607 -9.115 2.59 
-8.616 -9.124 2.58 
-8.62 -9.129 2.568 
-9.706 -10.283 2.281 
-9.704 -10.28 2.266 
-9.803 -10.385 2.275 
-9.097 -9.637 2.029 
-8.94 -9.469 1.335 
-8.939 -9.469 1.321 
-8.922 -9.451 1.306 
-8.926 -9.455 1.293 
-8.911 -9.439 1.278 
-8.855 -9.379 1.257 
-8.853 -9.378 1.244 
-8.904 -9.431 1.238 
-8.909 -9.437 1.226 
-8.899 -9.426 1.211 
-8.904 -9.431 1.199 
-8.888 -9.414 1.183 
-8.915 -9.443 1.109 
-8.76 -9.278 0.936 
-8.005 -8.477 0.436 
-8.009 -8.481 0.424 
-8.608 -9.134 2.698 
-8.605 -9.131 2.684 
-8.599 -9.124 2.669 
-8.603 -9.128 2.657 
-8.603 -9.129 2.644 
-8.592 -9.117 2.628 
-8.596 -9.121 2.603 
-8.607 -9.133 2.593 
-8.603 -9.129 2.566 
-8.601 -9.127 2.539 
-8.604 -9.13 2.514 
-8.586 -9.111 2.496 
-8.642 -9.17 2.499 
-8.341 -8.85 2.236 
-8.661 -9.191 2.218 
-9.704 -10.3 2.269 
-9.801 -10.403 2.277 
-9.091 -9.648 2.044 
-9.102 -9.66 2.032 
-8.934 -9.48 1.296 
-8.907 -9.452 1.279 
-8.909 -9.454 1.266 
-8.852 -9.394 1.245 
-8.84 -9.381 1.23 
-8.886 -9.43 1.224 
-8.893 -9.437 1.211 
-8.906 -9.45 1.2 
-8.893 -9.437 1.185 
-8.877 -9.42 1.17 
-8.894 -9.438 1.107 
-8.745 -9.28 0.935 
-8.786 -9.323 0.568 
-8.745 -9.28 0.552 
-8.004 -8.492 0.424 
-8.592 -9.135 2.669 
-8.596 -9.139 2.657 
-8.588 -9.13 2.641 
-8.588 -9.131 2.628 
-8.591 -9.133 2.616 
-8.59 -9.132 2.603 
-8.601 -9.144 2.593 
-8.59 -9.132 2.576 
-8.579 -9.121 2.495 
-8.593 -9.137 2.487 
-8.583 -9.125 2.471 
-8.561 -9.102 2.451 
-8.333 -8.86 2.235 
-9.715 -10.332 2.301 
-9.695 -10.311 2.282 
-9.7 -10.316 2.269 
-9.713 -10.329 2.257 
-9.084 -9.659 2.043 
-9.095 -9.672 2.032 
-8.91 -9.474 1.266 
-8.895 -9.459 1.251 
-8.889 -9.452 1.237 
-8.852 -9.412 1.219 
-8.85 -9.41 1.206 
-8.876 -9.437 1.196 
-8.879 -9.441 1.184 
-8.871 -9.433 1.169 
-8.869 -9.43 1.156 
-8.874 -9.436 1.144 
-8.865 -9.426 1.13 
-8.868 -9.429 1.117 
-8.878 -9.44 1.105 
-8.731 -9.283 0.551 
-7.973 -8.475 0.445 
-7.996 -8.499 0.423 
-7.993 -8.497 0.411 
-8.592 -9.154 2.647 
-8.572 -9.133 2.627 
-8.588 -9.15 2.619 
-8.571 -9.132 2.601 
-8.573 -9.134 2.588 
-8.585 -9.147 2.579 
-8.582 -9.144 2.5 
-8.581 -9.143 2.487 
-8.586 -9.148 2.475 
-8.575 -9.136 2.459 
-8.587 -9.149 2.437 
-8.636 -9.202 2.204 
-9.632 -10.265 2.271 
-9.709 -10.347 2.231 
-9.086 -9.683 2.047 
-8.901 -9.484 1.228 
-8.86 -9.441 1.209 
-8.857 -9.437 1.196 
-8.847 -9.427 1.182 
-8.849 -9.429 1.169 
-8.85 -9.43 1.156 
-8.857 -9.437 1.144 
-8.866 -9.447 1.132 
-8.853 -9.434 1.118 
-8.861 -9.442 1.105 
-8.856 -9.437 1.092 
-8.738 -9.31 0.553 
-8.031 -8.555 0.497 
-7.963 -8.482 0.446 
-7.995 -8.517 0.425 
-7.986 -8.507 0.412 
-8.579 -9.157 2.606 
-8.574 -9.152 2.591 
-8.57 -9.147 2.577 
-8.565 -9.143 2.563 
-8.568 -9.145 2.551 
-8.563 -9.14 2.536 
-8.857 -9.455 1.197 
-8.857 -9.455 1.184 
-8.84 -9.437 1.169 
-8.839 -9.437 1.156 
-8.848 -9.446 1.144 
-8.848 -9.446 1.131 
-8.844 -9.441 1.118 
-8.844 -9.441 1.104 
-8.847 -9.445 1.092 
-8.839 -9.436 1.078 
-8.825 -9.421 1.063 
-8.739 -9.33 0.95 
-7.93 -8.463 0.491 
-7.959 -8.494 0.458 
-7.952 -8.487 0.446 
-7.998 -8.536 0.425 
-7.988 -8.525 0.413 
-8.865 -9.482 3.322 
-8.57 -9.166 2.579 
-8.559 -9.155 2.562 
-8.566 -9.162 2.552 
-8.557 -9.152 2.536 
-8.572 -9.168 2.527 
-8.56 -9.155 2.511 
-8.602 -9.201 2.185 
-9.653 -10.327 2.178 
-8.916 -9.537 1.232 
-8.895 -9.515 1.216 
-8.872 -9.49 1.2 
-8.853 -9.47 1.184 
-8.828 -9.443 1.167 
-8.841 -9.456 1.156 
-8.835 -9.452 1.142 
-8.84 -9.457 1.13 
-8.829 -9.444 1.116 
-8.833 -9.449 1.103 
-8.828 -9.443 1.09 
-8.822 -9.437 1.076 
-8.827 -9.443 1.064 
-8.817 -9.432 1.049 
-8.82 -9.435 1.037 
-8.761 -9.372 0.978 
-8.746 -9.355 0.964 
-8.758 -9.368 0.58 
-7.952 -8.504 0.457 
-7.963 -8.516 0.446 
-7.99 -8.544 0.436 
-7.984 -8.539 0.424 
-7.987 -8.542 0.412 
-8.863 -9.5 3.326 
-8.866 -9.503 3.314 
-8.557 -9.172 2.54 
-8.547 -9.161 2.524 
-8.544 -9.158 2.51 
-8.544 -9.158 2.497 
-8.545 -9.159 2.485 
-8.553 -9.167 2.474 
-9.624 -10.318 2.276 
-9.593 -10.285 2.183 
-9.64 -10.336 2.179 
-9.653 -10.35 2.167 
-9.634 -10.329 2.149 
-9.636 -10.332 2.135 
-8.923 -9.566 1.262 
-8.91 -9.552 1.246 
-8.908 -9.55 1.233 
-8.895 -9.536 1.218 
-8.825 -9.461 1.144 
-8.835 -9.471 1.132 
-8.816 -9.451 1.117 
-8.818 -9.452 1.104 
-8.814 -9.449 1.09 
-8.816 -9.451 1.078 
-8.814 -9.448 1.064 
-8.798 -9.431 1.049 
-8.802 -9.435 1.037 
-8.806 -9.44 1.025 
-8.787 -9.42 1.009 
-8.766 -9.396 0.994 
-8.764 -9.395 0.981 
-8.749 -9.378 0.966 
-7.977 -8.549 0.518 
-7.962 -8.532 0.482 
-7.943 -8.512 0.469 
-7.962 -8.533 0.447 
-7.979 -8.551 0.437 
-7.98 -8.552 0.425 
-7.978 -8.55 0.413 
-8.851 -9.505 3.325 
-8.854 -9.509 3.313 
-8.536 -9.167 2.51 
-8.524 -9.154 2.494 
-8.538 -9.169 2.485 
-8.536 -9.167 2.471 
-8.533 -9.164 2.457 
-8.544 -9.176 2.448 
-8.586 -9.22 2.174 
-9.645 -10.36 2.255 
-9.598 -10.31 2.172 
-9.657 -10.373 2.17 
-9.479 -10.181 1.89 
-8.966 -9.63 1.309 
-8.956 -9.619 1.294 
-8.932 -9.593 1.277 
-8.927 -9.588 1.263 
-8.816 -9.469 1.104 
-8.8 -9.451 1.09 
-8.788 -9.438 1.075 
-8.795 -9.446 1.063 
-8.799 -9.451 1.051 
-8.79 -9.441 1.036 
-8.799 -9.45 1.025 
-8.795 -9.446 1.011 
-8.791 -9.442 0.998 
-8.726 -9.372 0.939 
-8.741 -9.388 0.928 
-8.738 -9.385 0.915 
-7.965 -8.553 0.518 
-7.937 -8.522 0.481 
-7.966 -8.553 0.437 
-7.972 -8.56 0.425 
-7.978 -8.566 0.414 
-7.868 -8.464 3.265 
-7.861 -8.456 3.25 
-8.834 -9.506 3.321 
-8.533 -9.182 2.485 
-8.522 -9.17 2.469 
-8.527 -9.176 2.457 
-8.525 -9.174 2.444 
-8.533 -9.182 2.433 
-8.523 -9.171 2.417 
-8.574 -9.226 2.172 
-9.606 -10.339 2.16 
-9.674 -10.412 2.161 
-9.667 -10.405 2.145 
-9.649 -10.385 2.127 
-9.476 -10.199 1.89 
-9.004 -9.689 1.341 
-8.977 -9.661 1.324 
-8.944 -9.625 1.292 
-8.788 -9.458 1.075 
-8.791 -9.461 1.063 
-8.78 -9.449 1.048 
-8.786 -9.455 1.036 
-8.782 -9.452 1.023 
-8.776 -9.445 1.009 
-8.78 -9.449 0.997 
-8.784 -9.453 0.984 
-8.78 -9.449 0.971 
-8.743 -9.409 0.954 
-8.714 -9.378 0.938 
-7.972 -8.578 0.518 
-7.943 -8.546 0.493 
-7.932 -8.534 0.481 
-7.989 -8.595 0.425 
-7.969 -8.574 0.413 
-7.867 -8.481 3.295 
-7.856 -8.469 3.278 
-7.855 -8.468 3.265 
-8.836 -9.528 3.327 
-8.53 -9.198 2.449 
-8.517 -9.184 2.432 
-8.514 -9.181 2.419 
-8.517 -9.184 2.406 
-8.518 -9.185 2.394 
-8.522 -9.19 2.382 
-8.575 -9.247 2.163 
-9.61 -10.365 2.251 
-9.606 -10.361 2.164 
-9.595 -10.349 2.118 
-9.628 -10.385 2.111 
-9.634 -10.391 2.098 
-9.457 -10.201 1.89 
-9.275 -10.004 1.811 
-9.011 -9.718 1.358 
-8.999 -9.706 1.343 
-8.789 -9.478 1.052 
-8.775 -9.463 1.037 
-8.768 -9.456 1.024 
-8.77 -9.458 1.011 
-8.772 -9.46 0.998 
-8.762 -9.45 0.984 
-8.767 -9.455 0.971 
-8.698 -9.38 0.951 
-8.701 -9.384 0.939 
-8.759 -9.447 0.893 
-7.935 -8.556 0.506 
-7.916 -8.535 0.493 
-7.91 -8.528 0.481 
-7.95 -8.571 0.471 
-7.969 -8.592 0.426 
-7.968 -8.591 0.414 
-7.861 -8.491 3.308 
-7.864 -8.494 3.297 
-7.84 -8.468 3.275 
-8.855 -9.567 3.351 
-8.831 -9.541 3.328 
-8.507 -9.192 2.419 
-8.505 -9.189 2.406 
-8.512 -9.198 2.395 
-8.51 -9.195 2.381 
-8.506 -9.19 2.367 
-8.498 -9.182 2.352 
-8.284 -8.95 2.217 
-8.553 -9.242 2.16 
-9.605 -10.381 2.253 
-9.604 -10.38 2.18 
-9.593 -10.367 2.163 
-9.585 -10.359 2.147 
-9.593 -10.368 2.106 
-9.624 -10.401 2.084 
-9.617 -10.393 2.068 
-9.318 -10.07 1.864 
-9.262 -10.01 1.811 
-9.055 -9.785 1.38 
-9.018 -9.745 1.361 
-8.773 -9.479 1.025 
-8.761 -9.467 1.011 
-8.765 -9.471 0.998 
-8.757 -9.462 0.984 
-8.742 -9.446 0.97 
-8.675 -9.374 0.95 
-8.752 -9.457 0.945 
-8.766 -9.472 0.934 
-8.741 -9.445 0.918 
-8.756 -9.461 0.881 
-7.961 -8.601 0.52 
-7.94 -8.578 0.506 
-7.932 -8.569 0.494 
-7.953 -8.592 0.484 
-7.947 -8.586 0.472 
-7.903 -8.538 0.458 
-7.947 -8.586 0.448 
-7.953 -8.592 0.437 
-7.959 -8.598 0.426 
-7.956 -8.596 0.414 
-7.842 -8.488 3.303 
-7.835 -8.48 3.288 
-8.841 -9.572 3.348 
-8.824 -9.554 3.329 
-8.82 -9.549 3.313 
-8.852 -9.584 3.297 
-7.429 -8.041 2.616 
-7.426 -8.037 2.603 
-8.481 -9.182 2.387 
-8.487 -9.188 2.376 
-8.496 -9.199 2.366 
-8.487 -9.188 2.35 
-8.505 -9.208 2.342 
-8.303 -8.989 2.224 
-8.538 -9.245 2.158 
-9.59 -10.385 2.193 
-9.587 -10.382 2.177 
-9.574 -10.368 2.16 
-9.576 -10.37 2.146 
-9.594 -10.389 2.078 
-9.592 -10.387 2.063 
-9.592 -10.387 2.049 
-9.593 -10.389 2.035 
-9.599 -10.395 2.021 
-9.298 -10.068 1.86 
-9.265 -10.032 1.826 
-9.285 -10.055 1.816 
-9.063 -9.814 1.395 
-9.037 -9.786 1.377 
-8.759 -9.484 0.998 
-8.745 -9.469 0.983 
-8.679 -9.397 0.962 
-8.735 -9.459 0.956 
-8.735 -9.459 0.943 
-8.741 -9.464 0.931 
-8.733 -9.456 0.917 
-8.734 -9.457 0.904 
-8.726 -9.449 0.891 
-8.736 -9.459 0.879 
-7.946 -8.602 0.53 
-7.925 -8.579 0.517 
-7.924 -8.578 0.505 
-7.947 -8.603 0.495 
-7.934 -8.588 0.482 
-7.943 -8.599 0.471 
-7.911 -8.563 0.458 
-7.953 -8.61 0.425 
-7.952 -8.608 0.413 
-7.965 -8.622 0.402 
-8.021 -8.699 3.822 
-7.847 -8.511 3.31 
-7.82 -8.482 3.286 
-8.83 -9.58 3.336 
-8.815 -9.564 3.316 
-8.834 -9.584 3.296 
-7.399 -8.025 2.609 
-7.41 -8.037 2.567 
-7.408 -8.035 2.497 
-7.417 -8.044 2.489 
-7.425 -8.053 2.4 
-7.388 -8.013 2.376 
-8.486 -9.207 2.354 
-8.487 -9.207 2.341 
-8.485 -9.206 2.328 
-8.484 -9.204 2.315 
-8.489 -9.21 2.303 
-8.285 -8.988 2.21 
-8.535 -9.26 2.148 
-9.573 -10.388 2.178 
-9.569 -10.384 2.162 
-9.562 -10.377 1.989 
-9.56 -10.375 1.974 
-9.288 -10.079 1.848 
-9.252 -10.04 1.827 
-9.264 -10.053 1.815 
-9.108 -9.884 1.432 
-9.079 -9.852 1.413 
-9.058 -9.829 1.397 
-8.74 -9.483 0.972 
-8.733 -9.476 0.958 
-8.728 -9.471 0.945 
-8.724 -9.466 0.931 
-8.719 -9.461 0.918 
-8.717 -9.459 0.905 
-8.729 -9.472 0.893 
-8.722 -9.464 0.879 
-8.719 -9.461 0.866 
-8.695 -9.434 0.8 
-7.929 -8.601 0.542 
-7.935 -8.608 0.53 
-7.915 -8.586 0.518 
-7.952 -8.627 0.508 
-7.926 -8.598 0.495 
-7.957 -8.632 0.485 
-7.947 -8.621 0.414 
-7.952 -8.627 0.403 
-8.04 -8.736 3.808 
-7.825 -8.503 3.304 
-7.805 -8.481 3.283 
-8.828 -9.597 3.339 
-8.818 -9.586 3.321 
-8.81 -9.577 3.304 
-8.829 -9.598 3.297 
-8.008 -8.704 2.827 
-7.398 -8.04 2.485 
-7.418 -8.061 2.458 
-7.396 -8.037 2.439 
-7.398 -8.039 2.394 
-7.395 -8.036 2.381 
-7.413 -8.055 2.375 
-7.402 -8.044 2.315 
-7.401 -8.043 2.304 
-7.402 -8.044 2.224 
-7.399 -8.041 2.212 
-7.402 -8.044 2.201 
-7.474 -8.123 2.212 
-7.395 -8.036 2.166 
-8.483 -9.222 2.33 
-8.477 -9.215 2.315 
-8.478 -9.216 2.302 
-8.475 -9.213 2.289 
-8.384 -9.113 2.251 
-8.28 -9 2.211 
-8.357 -9.085 2.219 
-8.514 -9.255 2.145 
-9.536 -10.369 1.957 
-9.523 -10.355 1.94 
-9.527 -10.358 1.926 
-9.433 -10.257 1.893 
-9.437 -10.261 1.88 
-9.256 -10.063 1.83 
-9.256 -10.064 1.816 
-9.457 -10.283 1.756 
-9.201 -10.004 1.53 
-9.154 -9.952 1.495 
-9.144 -9.941 1.48 
-9.121 -9.916 1.462 
-9.109 -9.903 1.446 
-9.096 -9.889 1.431 
-8.742 -9.504 0.96 
-8.722 -9.482 0.945 
-8.718 -9.478 0.932 
-8.709 -9.469 0.918 
-8.714 -9.474 0.905 
-8.703 -9.461 0.891 
-8.703 -9.462 0.878 
-8.708 -9.467 0.866 
-8.714 -9.474 0.854 
-7.928 -8.617 0.531 
-7.938 -8.628 0.52 
-7.928 -8.617 0.507 
-7.969 -8.662 0.498 
-7.964 -8.656 0.486 
-7.956 -8.647 0.415 
-7.938 -8.628 0.403 
-8.019 -8.731 3.854 
-8.02 -8.732 3.841 
-8.039 -8.753 3.837 
-8.021 -8.733 3.789 
-7.826 -8.521 3.319 
-7.818 -8.512 3.303 
-8.814 -9.6 3.335 
-8.828 -9.615 3.327 
-8.819 -9.605 3.309 
-8.804 -9.588 3.29 
-8.786 -9.569 3.27 
-7.393 -8.049 2.657 
-7.401 -8.057 2.649 
-7.395 -8.052 2.635 
-7.391 -8.047 2.622 
-7.395 -8.052 2.612 
-7.394 -8.05 2.474 
-7.402 -8.059 2.442 
-7.398 -8.055 2.429 
-7.39 -8.046 2.393 
-7.392 -8.049 2.382 
-7.39 -8.047 2.313 
-7.392 -8.049 2.302 
-7.405 -8.063 2.238 
-7.398 -8.055 2.225 
-7.393 -8.05 2.212 
-7.412 -8.071 2.206 
-7.392 -8.049 2.189 
-7.407 -8.065 2.182 
-7.41 -8.069 2.171 
-7.388 -8.045 2.154 
-8.466 -9.221 2.314 
-8.467 -9.222 2.301 
-8.469 -9.225 2.289 
-8.458 -9.212 2.273 
-8.266 -9.004 2.209 
-8.445 -9.198 2.218 
-8.497 -9.256 2.142 
-9.401 -10.242 1.93 
-9.425 -10.268 1.92 
-9.326 -10.16 1.858 
-9.331 -10.166 1.845 
-9.329 -10.163 1.831 
-9.263 -10.091 1.804 
-9.298 -10.13 1.797 
-9.445 -10.291 1.811 
-9.418 -10.261 1.792 
-9.412 -10.254 1.776 
-9.405 -10.246 1.761 
-9.401 -10.242 1.746 
-9.381 -10.22 1.729 
-9.367 -10.205 1.698 
-9.344 -10.179 1.68 
-9.334 -10.169 1.664 
-9.321 -10.155 1.648 
-9.303 -10.136 1.631 
-9.288 -10.119 1.614 
-9.23 -10.055 1.59 
-9.217 -10.042 1.574 
-9.213 -10.037 1.56 
-9.209 -10.032 1.545 
-9.184 -10.005 1.514 
-9.166 -9.986 1.497 
-9.116 -9.931 1.462 
-8.702 -9.479 0.917 
-8.692 -9.468 0.903 
-8.696 -9.472 0.89 
-8.697 -9.473 0.878 
-8.691 -9.466 0.864 
-8.69 -9.466 0.851 
-8.694 -9.47 0.839 
-8.694 -9.47 0.826 
-8.685 -9.46 0.786 
-7.902 -8.605 0.528 
-7.879 -8.58 0.515 
-7.958 -8.666 0.509 
-7.966 -8.676 0.498 
-7.942 -8.65 0.414 
-7.95 -8.658 0.403 
-8.006 -8.735 3.892 
-7.994 -8.722 3.873 
-8.009 -8.739 3.867 
-8.018 -8.748 3.845 
-8.027 -8.758 3.837 
-7.825 -8.538 3.324 
-7.798 -8.509 3.3 
-8.005 -8.735 3.298 
-8.812 -9.618 3.381 
-8.821 -9.628 3.371 
-8.8 -9.605 3.349 
-8.8 -9.605 3.335 
-8.797 -9.601 3.32 
-8.804 -9.609 3.309 
-7.381 -8.052 2.623 
-7.39 -8.063 2.614 
-7.383 -8.056 2.6 
-7.392 -8.065 2.592 
-7.384 -8.056 2.577 
-7.383 -8.056 2.566 
-7.385 -8.058 2.555 
-7.376 -8.047 2.54 
-7.381 -8.053 2.531 
-7.379 -8.051 2.518 
-7.383 -8.056 2.509 
-7.386 -8.058 2.498 
-7.379 -8.051 2.484 
-7.386 -8.059 2.475 
-7.393 -8.066 2.466 
-7.382 -8.055 2.451 
-7.386 -8.059 2.441 
-7.376 -8.048 2.38 
-7.398 -8.072 2.376 
-7.396 -8.07 2.318 
-8.455 -9.228 2.289 
-8.452 -9.224 2.275 
-8.381 -9.147 2.243 
-8.267 -9.022 2.2 
-8.441 -9.213 2.233 
-8.443 -9.215 2.221 
-8.394 -9.162 2.195 
-8.478 -9.254 2.127 
-9.413 -10.277 1.936 
-9.42 -10.284 1.923 
-9.416 -10.281 1.894 
-9.374 -10.234 1.872 
-9.265 -10.115 1.836 
-9.422 -10.287 1.852 
-9.415 -10.279 1.809 
-9.385 -10.247 1.761 
-9.384 -10.245 1.746 
-9.367 -10.226 1.701 
-9.266 -10.116 1.627 
-9.211 -10.056 1.604 
-8.688 -9.483 0.892 
-8.68 -9.475 0.878 
-8.683 -9.478 0.866 
-8.673 -9.467 0.852 
-8.672 -9.466 0.839 
-8.672 -9.466 0.826 
-8.673 -9.467 0.813 
-8.674 -9.468 0.801 
-8.676 -9.47 0.788 
-7.878 -8.598 0.54 
-7.945 -8.67 0.404 
-7.945 -8.67 0.392 
-7.995 -8.74 3.878 
-7.989 -8.733 3.862 
-7.987 -8.73 3.847 
-8.007 -8.752 3.844 
-8.024 -8.771 3.839 
-8.02 -8.767 3.824 
-8.019 -8.766 3.811 
-8.018 -8.765 3.474 
-7.778 -8.502 3.307 
-7.785 -8.51 3.298 
-7.963 -8.705 3.297 
-8.01 -8.756 3.304 
-8.04 -8.79 3.087 
-8.839 -9.665 3.353 
-8.833 -9.659 3.337 
-8.796 -9.617 3.309 
-8.783 -9.604 3.291 
-8.782 -9.602 3.276 
-8.782 -9.603 3.263 
-8.783 -9.605 3.249 
-8.004 -8.751 2.873 
-7.995 -8.741 2.844 
-8.024 -8.773 2.817 
-7.373 -8.06 2.508 
-7.369 -8.056 2.495 
-7.374 -8.061 2.485 
-7.362 -8.048 2.47 
-7.38 -8.068 2.464 
-7.365 -8.051 2.448 
-7.378 -8.065 2.44 
-7.377 -8.065 2.429 
-7.37 -8.057 2.415 
-7.375 -8.062 2.348 
-7.371 -8.058 2.336 
-7.411 -8.102 1.973 
-7.436 -8.129 1.969 
-8.443 -9.233 2.223 
-8.407 -9.193 2.201 
-8.389 -9.174 2.184 
-8.381 -9.165 2.169 
-9.25 -10.117 1.834 
-9.407 -10.289 1.851 
-9.425 -10.309 1.841 
-9.387 -10.268 1.763 
-9.204 -10.067 1.646 
-9.204 -10.067 1.632 
-8.67 -9.482 0.865 
-8.668 -9.48 0.852 
-8.665 -9.477 0.839 
-8.661 -9.472 0.826 
-8.656 -9.466 0.812 
-8.661 -9.472 0.8 
-8.655 -9.466 0.787 
-8.661 -9.472 0.774 
-8.574 -9.377 0.589 
-8.701 -9.515 0.584 
-7.937 -8.678 0.404 
-7.933 -8.674 0.392 
-7.981 -8.742 3.848 
-8.006 -8.769 3.834 
-7.983 -8.744 3.81 
-7.957 -8.716 3.425 
-7.79 -8.533 3.315 
-7.785 -8.527 3.3 
-7.939 -8.696 3.29 
-7.991 -8.754 3.299 
-8.023 -8.789 3.096 
-8.879 -9.728 3.371 
-8.797 -9.638 3.298 
-8.76 -9.598 3.243 
-8.763 -9.601 3.23 
-8.771 -9.61 3.22 
-7.998 -8.762 2.873 
-7.995 -8.758 2.846 
-8.018 -8.783 2.817 
-8.742 -9.579 2.949 
-7.393 -8.098 2.47 
-7.387 -8.091 2.457 
-7.361 -8.062 2.425 
-7.363 -8.065 2.415 
-7.359 -8.06 2.402 
-7.37 -8.072 2.394 
-7.352 -8.052 2.376 
-7.361 -8.062 2.368 
-7.369 -8.071 2.359 
-7.37 -8.073 2.348 
-7.359 -8.061 2.334 
-7.368 -8.07 2.325 
-7.373 -8.075 2.315 
-7.379 -8.083 2.306 
-7.362 -8.063 2.289 
-7.369 -8.071 2.28 
-7.369 -8.071 2.257 
-7.377 -8.08 2.225 
-7.421 -8.13 1.955 
-7.396 -8.101 1.936 
-7.429 -8.138 1.934 
-7.415 -8.122 1.919 
-7.431 -8.141 1.912 
-9.218 -10.103 1.912 
-9.27 -10.159 1.909 
-9.453 -10.36 1.932 
-9.237 -10.123 1.833 
-9.416 -10.32 1.854 
-9.377 -10.277 1.776 
-9.187 -10.069 1.671 
-8.663 -9.493 0.851 
-8.658 -9.487 0.838 
-8.65 -9.478 0.824 
-8.649 -9.477 0.811 
-8.651 -9.479 0.799 
-8.645 -9.473 0.785 
-8.647 -9.475 0.773 
-8.648 -9.475 0.76 
-8.646 -9.474 0.747 
-8.561 -9.381 0.587 
-8.665 -9.494 0.581 
-7.927 -8.684 0.403 
-7.937 -8.695 0.392 
-7.988 -8.767 3.883 
-7.994 -8.774 3.873 
-7.996 -8.776 3.861 
-7.994 -8.774 3.847 
-8.001 -8.782 3.837 
-7.967 -8.745 3.434 
-7.796 -8.557 3.322 
-7.788 -8.549 3.307 
-7.919 -8.693 3.287 
-7.989 -8.77 3.303 
-8.019 -8.802 3.073 
-8.861 -9.729 3.369 
-8.793 -9.654 3.274 
-8.747 -9.604 3.202 
-8.761 -9.619 3.193 
-8.74 -9.597 3.172 
-7.991 -8.772 2.862 
-7.983 -8.764 2.847 
-7.997 -8.779 2.826 
-8.016 -8.8 2.821 
-8.703 -9.556 2.981 
-8.721 -9.575 2.96 
-7.353 -8.07 2.426 
-7.366 -8.085 2.419 
-7.353 -8.07 2.403 
-7.364 -8.083 2.316 
-7.36 -8.078 2.303 
-7.364 -8.083 2.293 
-7.355 -8.074 2.279 
-7.363 -8.083 2.27 
-7.362 -8.081 2.258 
-7.362 -8.082 2.247 
-7.361 -8.08 2.235 
-7.363 -8.082 2.225 
-7.365 -8.084 2.214 
-7.36 -8.079 2.201 
-7.364 -8.084 2.191 
-7.363 -8.082 2.179 
-7.357 -8.076 2.167 
-7.368 -8.088 2.158 
-7.353 -8.072 2.142 
-7.406 -8.129 1.942 
-7.412 -8.137 1.933 
-7.408 -8.132 1.921 
-7.404 -8.128 1.908 
-7.408 -8.132 1.898 
-7.411 -8.136 1.887 
-7.417 -8.142 1.878 
-7.416 -8.141 1.866 
-7.426 -8.152 1.857 
-9.194 -10.097 1.924 
-9.208 -10.113 1.914 
-9.481 -10.413 1.956 
-9.391 -10.314 1.923 
-9.524 -10.461 1.936 
-9.412 -10.338 1.857 
-9.197 -10.1 1.717 
-9.196 -10.1 1.703 
-8.647 -9.495 0.813 
-8.633 -9.479 0.799 
-8.632 -9.479 0.786 
-8.623 -9.468 0.772 
-8.626 -9.472 0.76 
-8.629 -9.475 0.747 
-8.625 -9.471 0.735 
-8.64 -9.488 0.723 
-8.628 -9.474 0.696 
-8.573 -9.414 0.603 
-8.605 -9.448 0.592 
-8.58 -9.421 0.578 
-8.586 -9.428 0.553 
-7.918 -8.692 0.404 
-7.928 -8.704 0.393 
-7.995 -8.793 3.526 
-7.725 -8.495 3.333 
-7.753 -8.526 3.332 
-7.781 -8.557 3.307 
-7.984 -8.781 3.317 
-7.996 -8.794 3.309 
-7.982 -8.779 3.113 
-7.998 -8.797 3.107 
-8.002 -8.801 3.083 
-8.073 -8.88 3.085 
-8.856 -9.743 3.371 
-8.793 -9.673 3.319 
-8.777 -9.655 3.285 
-8.741 -9.615 3.161 
-8.743 -9.618 3.149 
-7.997 -8.796 2.829 
-8.695 -9.565 2.982 
-8.716 -9.589 2.962 
-7.356 -8.089 2.236 
-7.359 -8.093 2.214 
-7.357 -8.091 2.202 
-7.368 -8.103 2.194 
-7.361 -8.095 2.181 
-7.362 -8.097 2.17 
-7.359 -8.093 2.158 
-7.359 -8.094 2.146 
-7.356 -8.089 2.134 
-7.362 -8.097 2.125 
-7.371 -8.106 2.116 
-7.363 -8.098 2.102 
-7.414 -8.155 1.936 
-7.399 -8.138 1.92 
-7.398 -8.137 1.909 
-7.402 -8.141 1.898 
-7.422 -8.163 1.892 
-7.413 -8.153 1.879 
-7.422 -8.163 1.87 
-7.42 -8.162 1.858 
-7.418 -8.159 1.846 
-9.185 -10.107 1.925 
-9.197 -10.12 1.913 
-9.294 -10.227 1.919 
-9.415 -10.361 1.93 
-9.256 -10.185 1.884 
-8.649 -9.515 0.802 
-8.614 -9.477 0.785 
-8.621 -9.485 0.773 
-8.622 -9.485 0.761 
-8.611 -9.473 0.747 
-8.625 -9.489 0.735 
-8.61 -9.473 0.721 
-8.607 -9.469 0.708 
-8.609 -9.472 0.695 
-8.584 -9.443 0.604 
-8.596 -9.457 0.592 
-8.588 -9.448 0.566 
-7.933 -8.726 0.405 
-7.935 -8.728 0.393 
-7.992 -8.807 3.567 
-8.26 -9.103 3.66 
-8.27 -9.114 3.651 
-8.275 -9.12 3.64 
-7.725 -8.512 3.347 
-7.735 -8.523 3.339 
-7.763 -8.554 3.339 
-7.875 -8.678 3.374 
-7.982 -8.797 3.319 
-7.969 -8.783 3.301 
-7.966 -8.779 3.122 
-7.972 -8.785 3.111 
-7.978 -8.793 3.101 
-7.99 -8.805 3.093 
-8.039 -8.859 3.074 
-8.008 -8.825 3.037 
-8.799 -9.7 3.324 
-8.784 -9.683 3.304 
-8.715 -9.607 3.127 
-8.715 -9.606 3.114 
-7.988 -8.804 2.828 
-7.979 -8.794 2.8 
-8.694 -9.584 2.97 
-7.361 -8.112 2.114 
-7.353 -8.103 2.101 
-7.356 -8.106 2.09 
-7.368 -8.119 2.082 
-7.355 -8.106 2.067 
-7.364 -8.116 2.059 
-7.361 -8.112 2.047 
-7.366 -8.118 2.037 
-7.374 -8.127 2.028 
-7.413 -8.17 1.937 
-7.388 -8.142 1.918 
-7.411 -8.167 1.902 
-7.408 -8.164 1.89 
-7.406 -8.162 1.878 
-7.393 -8.148 1.863 
-7.403 -8.158 1.854 
-7.41 -8.167 1.845 
-7.411 -8.168 1.834 
-7.415 -8.172 1.824 
-7.419 -8.177 1.813 
-9.2 -10.144 1.915 
-9.206 -10.151 1.902 
-9.428 -10.396 1.934 
-9.188 -10.131 1.829 
-9.192 -10.135 1.788 
-9.196 -10.14 1.775 
-8.617 -9.499 0.772 
-8.614 -9.496 0.76 
-8.611 -9.493 0.746 
-8.6 -9.48 0.733 
-8.603 -9.484 0.72 
-8.592 -9.472 0.706 
-8.599 -9.48 0.694 
-8.602 -9.483 0.682 
-8.594 -9.473 0.668 
-8.549 -9.424 0.563 
-7.922 -8.732 0.404 
-7.919 -8.728 0.392 
-7.975 -8.807 3.565 
-8.245 -9.106 3.672 
-8.272 -9.135 3.671 
-8.269 -9.133 3.656 
-8.293 -9.159 3.653 
-8.283 -9.148 3.636 
-7.971 -8.803 3.447 
-7.963 -8.794 3.43 
-7.984 -8.817 3.427 
-7.866 -8.687 3.313 
-7.833 -8.65 3.286 
-7.843 -8.662 3.278 
-7.866 -8.687 3.275 
-7.919 -8.745 3.284 
-7.951 -8.78 3.285 
-7.947 -8.776 3.131 
-7.962 -8.793 3.125 
-7.962 -8.794 3.112 
-7.976 -8.809 3.105 
-7.985 -8.818 3.096 
-7.995 -8.829 3.087 
-8.005 -8.841 3.066 
-8.004 -8.84 3.04 
-8.784 -9.703 3.323 
-8.807 -9.729 3.318 
-7.991 -8.826 2.833 
-7.958 -8.79 2.81 
-7.977 -8.81 2.804 
-7.967 -8.799 2.788 
-8.673 -9.581 2.981 
-8.677 -9.585 2.969 
-7.353 -8.12 2.048 
-7.355 -8.123 2.037 
-7.355 -8.122 2.026 
-7.362 -8.129 2.016 
-7.369 -8.137 2.007 
-7.368 -8.136 1.995 
-7.364 -8.132 1.983 
-7.358 -8.126 1.97 
-7.378 -8.148 1.964 
-7.379 -8.148 1.953 
-7.362 -8.13 1.937 
-7.391 -8.162 1.934 
-7.385 -8.155 1.921 
-7.398 -8.169 1.879 
-7.388 -8.159 1.865 
-7.397 -8.168 1.856 
-7.398 -8.17 1.845 
-7.394 -8.165 1.833 
-7.403 -8.175 1.824 
-7.412 -8.186 1.803 
-7.424 -8.199 1.795 
-9.19 -10.154 1.958 
-9.205 -10.17 1.947 
-9.185 -10.148 1.929 
-9.195 -10.159 1.917 
-9.305 -10.281 1.926 
-9.218 -10.184 1.894 
-9.215 -10.181 1.88 
-9.456 -10.448 1.914 
-9.176 -10.138 1.844 
-9.194 -10.158 1.833 
-9.188 -10.151 1.818 
-8.603 -9.504 0.748 
-8.584 -9.483 0.733 
-8.593 -9.493 0.721 
-8.591 -9.49 0.708 
-8.586 -9.485 0.695 
-8.575 -9.473 0.681 
-8.592 -9.492 0.67 
-8.584 -9.483 0.657 
-8.571 -9.468 0.643 
-8.541 -9.436 0.564 
-7.92 -8.748 0.405 
-7.913 -8.739 0.393 
-7.96 -8.806 3.561 
-7.958 -8.805 3.547 
-7.962 -8.809 3.537 
-7.965 -8.813 3.525 
-8.233 -9.109 3.631 
-8.291 -9.174 3.643 
-8.328 -9.214 3.632 
-7.967 -8.815 3.462 
-7.953 -8.799 3.443 
-7.855 -8.69 3.387 
-7.792 -8.62 3.347 
-7.782 -8.609 3.331 
-7.807 -8.637 3.329 
-7.773 -8.6 3.302 
-7.777 -8.604 3.291 
-7.785 -8.613 3.282 
-7.79 -8.618 3.272 
-7.797 -8.626 3.262 
-7.901 -8.741 3.293 
-7.874 -8.712 3.269 
-7.915 -8.757 3.274 
-7.878 -8.717 3.233 
-7.936 -8.781 3.13 
-7.943 -8.789 3.121 
-7.961 -8.809 3.115 
-7.961 -8.809 3.103 
-7.972 -8.822 3.094 
-7.994 -8.846 3.09 
-8.012 -8.865 3.059 
-8.051 -8.909 3.061 
-8.782 -9.72 3.326 
-8.795 -9.735 3.317 
-8.807 -9.748 3.308 
-7.946 -8.793 2.821 
-7.966 -8.815 2.815 
-7.964 -8.812 2.802 
-7.974 -8.824 2.793 
-7.951 -8.798 2.748 
-8.663 -9.588 2.981 
-7.36 -8.143 1.984 
-7.358 -8.141 1.972 
-7.364 -8.148 1.962 
-7.366 -8.15 1.952 
-7.36 -8.144 1.939 
-7.368 -8.152 1.93 
-7.377 -8.163 1.921 
-7.381 -8.166 1.91 
-7.378 -8.163 1.898 
-7.382 -8.168 1.888 
-7.377 -8.163 1.876 
-7.389 -8.176 1.867 
-7.382 -8.168 1.854 
-7.391 -8.178 1.845 
-7.397 -8.184 1.835 
-7.407 -8.195 1.827 
-7.397 -8.184 1.813 
-7.403 -8.191 1.803 
-9.197 -10.181 1.948 
-9.197 -10.181 1.933 
-9.192 -10.175 1.904 
-9.206 -10.191 1.893 
-9.249 -10.239 1.888 
-9.193 -10.177 1.863 
-9.192 -10.175 1.835 
-8.571 -9.487 0.72 
-8.581 -9.498 0.708 
-8.58 -9.497 0.695 
-8.573 -9.489 0.682 
-8.572 -9.488 0.669 
-8.572 -9.487 0.656 
-8.575 -9.492 0.644 
-8.564 -9.479 0.63 
-8.555 -9.469 0.617 
-8.582 -9.499 0.593 
-7.924 -8.769 0.406 
-7.918 -8.762 0.394 
-8 -8.869 3.569 
-7.963 -8.828 3.54 
-7.95 -8.813 3.521 
-7.95 -8.813 3.508 
-7.952 -8.815 3.496 
-7.959 -8.824 3.486 
-7.962 -8.827 3.475 
-7.952 -8.816 3.458 
-7.948 -8.811 3.443 
-7.94 -8.802 3.427 
-7.801 -8.648 3.329 
-7.896 -8.753 3.319 
-7.877 -8.733 3.298 
-7.838 -8.689 3.269 
-7.903 -8.762 3.284 
-7.873 -8.728 3.259 
-7.883 -8.74 3.25 
-7.923 -8.784 3.14 
-7.926 -8.787 3.129 
-7.938 -8.8 3.121 
-7.947 -8.811 3.112 
-7.952 -8.816 3.101 
-7.969 -8.835 3.095 
-7.95 -8.814 3.063 
-7.993 -8.862 3.054 
-8.765 -9.72 3.336 
-8.778 -9.734 3.327 
-8.799 -9.757 3.321 
-7.949 -8.813 2.811 
-7.957 -8.822 2.801 
-7.96 -8.825 2.79 
-7.969 -8.835 2.781 
-7.916 -8.776 2.737 
-8.661 -9.605 2.969 
-7.364 -8.164 1.918 
-7.367 -8.167 1.908 
-7.374 -8.174 1.898 
-7.374 -8.174 1.887 
-7.375 -8.176 1.876 
-7.373 -8.173 1.864 
-7.379 -8.181 1.854 
-7.375 -8.176 1.842 
-7.388 -8.19 1.834 
-7.39 -8.193 1.824 
-7.387 -8.19 1.811 
-7.385 -8.187 1.799 
-7.408 -8.212 1.794 
-7.404 -8.208 1.781 
-9.187 -10.19 1.877 
-8.561 -9.494 0.693 
-8.559 -9.492 0.68 
-8.563 -9.497 0.668 
-8.556 -9.489 0.655 
-8.556 -9.488 0.642 
-8.555 -9.488 0.629 
-8.556 -9.489 0.616 
-8.574 -9.509 0.605 
-8.567 -9.5 0.592 
-7.934 -8.797 0.406 
-7.917 -8.778 0.393 
-8.24 -9.154 3.682 
-8.255 -9.171 3.675 
-8.254 -9.171 3.661 
-8.276 -9.195 3.658 
-7.957 -8.84 3.504 
-7.948 -8.83 3.487 
-7.952 -8.834 3.476 
-7.945 -8.826 3.46 
-7.949 -8.831 3.449 
-7.93 -8.81 3.428 
-7.958 -8.841 3.427 
-7.753 -8.613 3.313 
-7.878 -8.753 3.316 
-7.892 -8.767 3.309 
-7.901 -8.778 3.301 
-7.867 -8.74 3.274 
-7.919 -8.798 3.283 
-7.866 -8.739 3.248 
-7.914 -8.792 3.141 
-7.916 -8.795 3.129 
-7.926 -8.806 3.121 
-7.94 -8.822 3.114 
-7.952 -8.835 3.106 
-7.967 -8.851 3.099 
-7.948 -8.831 3.079 
-7.938 -8.819 3.063 
-7.977 -8.863 3.052 
-7.983 -8.869 3.042 
-8.779 -9.756 3.332 
-8.786 -9.763 3.321 
-7.936 -8.817 2.811 
-7.924 -8.804 2.782 
-7.955 -8.839 2.78 
-7.925 -8.805 2.732 
-7.915 -8.794 2.716 
-8.647 -9.609 2.955 
-7.385 -8.204 1.859 
-7.365 -8.182 1.843 
-7.382 -8.2 1.836 
-7.374 -8.192 1.823 
-7.385 -8.204 1.814 
-7.375 -8.194 1.8 
-7.386 -8.205 1.792 
-7.382 -8.201 1.779 
-7.398 -8.219 1.772 
-7.398 -8.219 1.761 
-9.391 -10.439 1.979 
-9.143 -10.162 1.871 
-7.596 -8.44 1.473 
-8.553 -9.505 0.682 
-8.542 -9.493 0.668 
-8.548 -9.5 0.656 
-8.539 -9.489 0.642 
-8.538 -9.488 0.63 
-8.544 -9.495 0.617 
-8.539 -9.489 0.604 
-8.544 -9.495 0.592 
-8.515 -9.463 0.577 
-8.519 -9.468 0.565 
-7.909 -8.787 0.394 
-7.928 -8.809 0.384 
-8.225 -9.156 3.679 
-8.245 -9.179 3.675 
-7.809 -8.692 3.467 
-7.768 -8.646 3.437 
-7.876 -8.767 3.472 
-7.917 -8.812 3.477 
-8.307 -9.247 3.635 
-8.33 -9.274 3.632 
-7.956 -8.856 3.456 
-7.924 -8.82 3.428 
-7.945 -8.844 3.425 
-7.942 -8.841 3.411 
-7.814 -8.698 3.343 
-7.944 -8.843 3.386 
-7.941 -8.839 3.372 
-7.867 -8.757 3.315 
-7.886 -8.778 3.311 
-7.892 -8.785 3.301 
-7.902 -8.795 3.292 
-7.883 -8.775 3.272 
-7.818 -8.702 3.232 
-7.926 -8.823 3.238 
-7.9 -8.794 3.215 
-7.869 -8.759 3.19 
-7.859 -8.748 3.173 
-7.908 -8.803 3.142 
-7.905 -8.799 3.128 
-7.922 -8.819 3.123 
-7.946 -8.845 3.119 
-7.955 -8.855 3.111 
-7.941 -8.84 3.079 
-7.926 -8.823 3.061 
-7.948 -8.847 3.057 
-7.959 -8.86 3.049 
-7.914 -8.81 2.806 
-7.906 -8.8 2.791 
-7.911 -8.807 2.78 
-7.945 -8.844 2.78 
-7.948 -8.848 2.768 
-7.889 -8.782 2.698 
-8.623 -9.601 2.936 
-8.632 -9.611 2.926 
-7.353 -8.184 1.853 
-7.364 -8.197 1.845 
-7.375 -8.209 1.802 
-7.377 -8.211 1.791 
-7.382 -8.217 1.781 
-7.389 -8.224 1.772 
-7.368 -8.201 1.755 
-7.385 -8.22 1.748 
-7.399 -8.236 1.74 
-7.404 -8.242 1.707 
-7.416 -8.255 1.699 
-7.457 -8.301 1.583 
-7.451 -8.295 1.571 
-9.122 -10.159 1.869 
-7.577 -8.435 1.471 
-7.561 -8.418 1.456 
-7.534 -8.388 1.44 
-8.539 -9.508 0.656 
-8.536 -9.504 0.643 
-8.526 -9.493 0.63 
-8.525 -9.492 0.617 
-8.528 -9.495 0.604 
-8.511 -9.476 0.59 
-8.531 -9.499 0.579 
-8.521 -9.488 0.565 
-8.511 -9.477 0.552 
-7.918 -8.815 0.395 
-7.728 -8.618 3.471 
-7.776 -8.671 3.48 
-7.781 -8.677 3.47 
-7.758 -8.652 3.447 
-7.758 -8.651 3.435 
-7.763 -8.657 3.424 
-7.801 -8.699 3.428 
-7.813 -8.713 3.421 
-7.849 -8.754 3.424 
-7.868 -8.774 3.42 
-7.917 -8.829 3.428 
-7.918 -8.831 3.416 
-7.777 -8.673 3.33 
-7.931 -8.846 3.383 
-7.932 -8.846 3.371 
-7.938 -8.853 3.36 
-7.905 -8.817 3.334 
-7.87 -8.777 3.306 
-7.886 -8.795 3.3 
-7.899 -8.81 3.293 
-7.881 -8.79 3.273 
-7.812 -8.712 3.231 
-7.872 -8.78 3.193 
-7.864 -8.77 3.177 
-7.882 -8.79 3.172 
-7.9 -8.81 3.141 
-7.904 -8.816 3.13 
-7.946 -8.862 3.134 
-7.956 -8.873 3.125 
-7.941 -8.856 3.081 
-7.951 -8.868 3.06 
-7.688 -8.574 2.886 
-7.902 -8.813 2.804 
-7.904 -8.817 2.792 
-7.903 -8.815 2.779 
-7.908 -8.82 2.768 
-7.905 -8.817 2.755 
-7.894 -8.804 2.739 
-8.612 -9.608 2.907 
-7.749 -8.643 2.603 
-7.324 -8.168 1.858 
-7.341 -8.187 1.851 
-7.373 -8.224 1.758 
-7.388 -8.24 1.75 
-7.386 -8.238 1.738 
-7.374 -8.225 1.724 
-7.397 -8.25 1.718 
-7.39 -8.243 1.705 
-7.401 -8.255 1.696 
-7.4 -8.254 1.685 
-7.431 -8.289 1.59 
-7.44 -8.298 1.58 
-7.445 -8.304 1.57 
-7.453 -8.313 1.561 
-7.446 -8.305 1.525 
-7.567 -8.44 1.492 
-7.583 -8.458 1.473 
-7.548 -8.419 1.454 
-7.529 -8.397 1.439 
-8.518 -9.503 0.628 
-8.518 -9.503 0.616 
-8.51 -9.494 0.602 
-8.507 -9.491 0.589 
-8.514 -9.498 0.577 
-8.523 -9.508 0.565 
-8.507 -9.49 0.551 
-8.506 -9.489 0.539 
-8.487 -9.469 0.525 
-7.917 -8.831 0.394 
-7.74 -8.649 3.495 
-7.75 -8.661 3.487 
-7.749 -8.66 3.461 
-7.759 -8.671 3.453 
-7.753 -8.665 3.438 
-7.75 -8.662 3.424 
-7.771 -8.685 3.42 
-7.788 -8.704 3.415 
-7.821 -8.741 3.417 
-7.92 -8.852 3.371 
-7.915 -8.847 3.356 
-7.928 -8.862 3.349 
-7.896 -8.825 3.322 
-7.881 -8.808 3.303 
-7.881 -8.809 3.291 
-7.858 -8.783 3.269 
-7.889 -8.817 3.268 
-7.821 -8.741 3.228 
-7.859 -8.784 3.168 
-7.89 -8.819 3.142 
-7.918 -8.85 3.141 
-7.922 -8.855 3.13 
-7.925 -8.858 3.118 
-7.933 -8.868 3.084 
-7.915 -8.847 3.064 
-7.942 -8.878 3.062 
-7.68 -8.584 2.814 
-7.891 -8.821 2.792 
-7.898 -8.828 2.782 
-7.886 -8.815 2.765 
-7.901 -8.832 2.758 
-7.889 -8.818 2.741 
-7.883 -8.812 2.727 
-7.714 -8.622 2.583 
-7.789 -8.706 2.596 
-8.6 -9.615 2.854 
-8.598 -9.613 2.84 
-8.588 -9.601 2.796 
-8.581 -9.594 2.767 
-7.37 -8.238 1.737 
-7.371 -8.238 1.726 
-7.373 -8.241 1.716 
-7.385 -8.254 1.707 
-7.395 -8.266 1.698 
-7.394 -8.265 1.687 
-7.393 -8.263 1.675 
-7.429 -8.303 1.592 
-7.426 -8.3 1.58 
-7.437 -8.312 1.571 
-7.449 -8.326 1.529 
-7.449 -8.326 1.517 
-7.552 -8.442 1.481 
-7.547 -8.435 1.468 
-7.538 -8.425 1.455 
-7.525 -8.411 1.441 
-7.528 -8.415 1.43 
-7.628 -8.527 1.172 
-7.617 -8.514 1.159 
-8.508 -9.512 0.617 
-8.503 -9.507 0.604 
-8.492 -9.495 0.59 
-8.487 -9.489 0.577 
-8.494 -9.497 0.565 
-8.485 -9.486 0.551 
-8.478 -9.479 0.539 
-8.493 -9.495 0.527 
-8.493 -9.496 0.514 
-8.475 -9.476 0.5 
-7.915 -8.848 0.396 
-7.749 -8.676 3.49 
-7.749 -8.676 3.477 
-7.744 -8.671 3.462 
-7.735 -8.661 3.445 
-7.75 -8.678 3.44 
-7.765 -8.695 3.434 
-7.75 -8.678 3.414 
-7.762 -8.692 3.408 
-7.754 -8.683 3.391 
-7.861 -8.803 3.426 
-7.776 -8.707 3.338 
-7.913 -8.861 3.333 
-7.905 -8.852 3.317 
-7.871 -8.814 3.29 
-7.837 -8.775 3.263 
-7.88 -8.824 3.268 
-7.878 -8.821 3.254 
-7.88 -8.824 3.243 
-7.913 -8.861 3.244 
-7.908 -8.856 3.229 
-7.91 -8.858 3.217 
-7.845 -8.784 3.165 
-7.854 -8.795 3.156 
-7.831 -8.769 3.135 
-7.882 -8.827 3.143 
-7.902 -8.849 3.138 
-7.913 -8.861 3.066 
-7.931 -8.882 3.061 
-7.65 -8.566 2.879 
-7.678 -8.598 2.78 
-7.887 -8.832 2.793 
-7.886 -8.832 2.781 
-7.88 -8.825 2.766 
-7.878 -8.823 2.753 
-7.886 -8.831 2.743 
-7.87 -8.814 2.725 
-7.866 -8.809 2.712 
-7.738 -8.665 2.594 
-8.577 -9.607 2.836 
-8.594 -9.626 2.828 
-8.324 -9.324 1.952 
-8.324 -9.324 1.94 
-7.397 -8.283 1.711 
-7.383 -8.268 1.697 
-7.375 -8.259 1.684 
-7.392 -8.278 1.676 
-7.391 -8.276 1.665 
-7.396 -8.282 1.655 
-7.389 -8.275 1.642 
-7.425 -8.315 1.593 
-7.426 -8.316 1.582 
-7.433 -8.324 1.572 
-7.45 -8.344 1.531 
