-8.409 49.861 5.851 
-8.397 49.792 5.741 
-8.327 49.366 4.834 
-8.33 49.385 4.784 
-8.118 48.128 4.516 
-8.295 49.181 3.912 
-8.291 49.155 3.861 
-8.147 48.302 3.744 
-8.148 48.306 3.695 
-8.146 48.298 3.646 
-8.196 48.596 3.323 
-8.207 48.66 3.128 
-8.202 48.633 3.078 
-8.112 48.099 2.36 
-8.135 48.236 2.219 
-8.071 47.86 2.155 
-8.131 48.212 2.121 
-8.13 48.207 2.073 
-8.138 47.964 8.501 
-7.856 46.305 8.158 
-7.856 46.307 8.111 
-7.85 46.268 8.055 
-7.827 46.137 6.93 
-7.833 46.168 6.888 
-8.058 47.492 6.204 
-8.004 47.176 6.066 
-7.725 45.535 5.573 
-7.685 45.299 5.312 
-8.371 49.34 4.928 
-8.369 49.329 4.877 
-8.375 49.361 4.829 
-8.37 49.331 4.775 
-8.626 50.841 4.455 
-8.599 50.681 4.286 
-8.19 48.276 3.689 
-8.19 48.278 3.641 
-8.072 47.584 3.539 
-8.077 47.614 3.494 
-8.08 47.631 3.446 
-8.082 47.644 3.398 
-8.084 47.652 3.351 
-8.099 47.742 3.308 
-8.25 48.629 3.173 
-8.254 48.658 3.124 
-8.137 47.968 2.446 
-8.159 48.086 2.405 
-8.162 48.102 2.356 
-8.214 48.409 2.323 
-8.251 48.629 2.233 
-8.127 47.9 2.152 
-8.177 48.192 2.116 
-8.179 48.203 2.069 
-7.898 46.246 6.667 
-7.907 46.301 6.531 
-7.923 46.392 6.448 
-7.924 46.395 6.4 
-8.112 47.496 6.21 
-7.756 45.414 5.89 
-7.769 45.49 5.714 
-7.782 45.568 5.676 
-8.514 49.851 5.546 
-8.554 50.081 5.213 
-8.427 49.342 4.833 
-8.223 48.149 4.666 
-8.488 49.701 4.412 
-8.657 50.69 4.292 
-8.384 49.091 3.756 
-8.242 48.262 3.595 
-8.125 47.579 3.496 
-8.133 47.627 3.451 
-8.135 47.637 3.402 
-8.139 47.659 3.357 
-8.141 47.676 3.309 
-8.144 47.693 3.262 
-8.15 47.724 3.215 
-8.303 48.623 3.127 
-8.222 48.148 2.413 
-8.211 48.087 2.36 
-8.271 48.439 2.279 
-8.273 48.451 2.23 
-8.182 47.918 2.158 
-8.23 48.195 2.121 
-8.222 48.15 2.071 
-8.341 48.572 9.327 
-7.965 46.384 8.179 
-7.936 46.214 7.908 
-8.098 47.157 8.021 
-7.955 46.322 7.83 
-7.918 46.11 6.791 
-8.09 47.109 6.889 
-7.927 46.16 6.702 
-7.942 46.25 6.573 
-7.965 46.384 6.448 
-7.964 46.379 6.399 
-8.326 48.483 6.539 
-8.188 47.68 6.333 
-7.803 45.443 5.242 
-7.793 45.384 5.188 
-8.6 50.079 5.214 
-8.47 49.321 4.831 
-8.256 48.077 4.612 
-8.422 49.042 3.704 
-8.284 48.242 3.594 
-8.284 48.241 3.546 
-8.186 47.671 3.358 
-8.18 47.637 3.306 
-8.171 47.589 3.256 
-8.209 47.806 3.172 
-8.346 48.602 3.126 
-8.255 48.078 2.36 
-8.285 48.254 2.221 
-8.262 48.123 2.168 
-8.261 48.112 2.118 
-8.261 48.115 2.07 
-8.225 47.608 9.34 
-8.227 47.622 9.292 
-8.206 47.503 9.218 
-8.216 47.561 9.18 
-8.389 48.556 9.321 
-8.384 48.53 9.266 
-8.386 48.542 9.217 
-8.385 48.536 9.166 
-8.386 48.541 9.115 
-8.386 48.543 9.064 
-8.374 48.469 8.796 
-8.388 48.551 8.762 
-8.384 48.529 8.706 
-8.381 48.511 8.653 
-7.966 46.115 8.177 
-7.967 46.119 8.129 
-7.968 46.124 8.083 
-8.365 48.418 8.434 
-7.967 46.12 7.986 
-7.98 46.195 7.951 
-7.984 46.219 7.906 
-7.989 46.247 7.863 
-7.997 46.292 7.822 
-8.024 46.449 7.656 
-8.077 46.751 7.657 
-8.075 46.742 7.608 
-8.199 47.461 7.429 
-8.193 47.426 7.227 
-8.165 47.261 7.005 
-8.158 47.224 6.952 
-8.144 47.142 6.744 
-8.121 47.008 6.579 
-8.008 46.354 6.441 
-8.669 50.175 6.042 
-8.648 50.054 5.36 
-8.638 49.996 5.251 
-8.673 50.198 5.222 
-8.504 49.221 4.869 
-8.522 49.327 4.728 
-8.299 48.041 4.555 
-8.569 49.602 4.349 
-8.47 49.031 3.699 
-8.334 48.245 3.542 
-8.388 48.558 3.119 
-8.303 48.068 2.356 
-8.351 48.346 2.271 
-8.307 48.094 2.21 
-8.371 48.462 2.179 
-8.302 48.067 2.112 
-8.303 48.071 2.064 
-8.272 47.586 9.342 
-8.274 47.596 9.293 
-8.274 47.599 9.194 
-8.28 47.629 9.149 
-8.433 48.507 9.115 
-8.436 48.524 9.066 
-8.415 48.403 8.994 
-8.453 48.625 8.984 
-8.453 48.624 8.934 
-8.435 48.522 8.864 
-8.448 48.594 8.776 
-8.454 48.628 8.73 
-8.413 48.392 8.639 
-8.02 46.139 8.187 
-8.412 48.386 8.535 
-8.409 48.369 8.483 
-8.408 48.365 8.431 
-8.009 46.074 7.984 
-8.029 46.185 7.955 
-8.034 46.215 7.911 
-8.038 46.242 7.868 
-8.037 46.234 7.722 
-8.051 46.313 7.687 
-8.071 46.429 7.659 
-8.296 47.72 7.376 
-8.236 47.375 7.028 
-8.229 47.334 6.974 
-8.198 47.157 6.899 
-8.171 47.003 6.827 
-8.42 48.433 6.535 
-8.272 47.585 6.225 
-8.275 47.6 6.177 
-8.162 46.949 5.996 
-8.686 49.964 5.306 
-8.695 50.012 5.259 
-8.572 49.306 4.731 
-8.581 49.363 4.686 
-8.408 48.364 4.542 
-8.617 49.57 4.351 
-8.39 48.268 3.647 
-8.391 48.269 3.597 
-8.381 48.213 3.545 
-8.396 48.299 3.501 
-8.404 48.345 3.455 
-8.478 48.774 3.338 
-8.48 48.782 3.288 
-8.351 48.047 2.359 
-8.448 48.605 2.338 
-8.412 48.394 2.279 
-8.391 48.277 2.223 
-8.331 47.93 2.16 
-8.344 48.007 2.114 
-8.357 48.079 2.069 
-8.364 48.121 2.021 
-8.317 47.583 9.342 
-8.321 47.608 9.297 
-8.321 47.608 9.197 
-8.336 47.696 9.163 
-8.484 48.54 9.071 
-8.485 48.544 9.022 
-8.503 48.648 8.99 
-8.283 47.39 8.658 
-8.224 47.054 8.499 
-8.218 47.02 8.443 
-8.224 47.056 8.401 
-8.227 47.068 8.353 
-8.084 46.253 8.16 
-8.09 46.285 8.118 
-8.09 46.285 8.069 
-8.086 46.262 8.018 
-8.073 46.19 7.957 
-8.061 46.121 7.896 
-8.065 46.143 7.853 
-8.087 46.268 7.825 
-8.076 46.206 7.768 
-8.072 46.185 7.715 
-8.082 46.244 7.676 
-8.176 46.78 7.572 
-8.289 47.421 7.233 
-8.293 47.446 7.187 
-8.294 47.45 7.09 
-8.331 47.665 7.072 
-8.582 49.099 7.235 
-8.182 46.813 6.174 
-8.19 46.859 6.131 
-8.196 46.893 6.086 
-8.203 46.934 6.044 
-8.206 46.949 5.997 
-8.212 46.982 5.954 
-7.967 45.585 5.636 
-8.775 50.201 6.155 
-8.752 50.067 5.726 
-8.844 50.595 5.633 
-8.778 50.217 5.127 
-8.462 48.412 4.646 
-8.458 48.394 4.594 
-8.392 48.003 4.362 
-8.946 51.168 4.388 
-8.864 50.699 4.296 
-8.549 48.901 3.795 
-8.56 48.964 3.749 
-8.563 48.979 3.701 
-8.435 48.248 3.596 
-8.427 48.205 3.545 
-8.45 48.335 3.504 
-8.445 48.308 3.453 
-8.49 48.563 3.422 
-8.484 48.531 3.37 
-8.492 48.579 3.325 
-8.527 48.778 3.288 
-8.472 48.461 3.217 
-8.476 48.483 3.17 
-8.51 48.681 2.489 
-8.506 48.663 2.44 
-8.397 48.035 2.359 
-8.458 48.385 2.328 
-8.447 48.323 2.276 
-8.373 47.902 2.206 
-8.376 47.917 2.159 
-8.386 47.975 2.113 
-8.388 47.986 2.065 
-8.41 48.115 2.022 
-8.414 48.135 1.973 
-8.431 48.233 1.929 
-8.369 47.6 9.693 
-8.367 47.59 9.64 
-8.368 47.595 9.592 
-8.367 47.59 9.54 
-8.359 47.545 9.481 
-8.374 47.628 9.448 
-8.361 47.558 9.384 
-8.362 47.559 9.335 
-8.368 47.594 9.191 
-8.344 47.459 9.115 
-8.379 47.659 9.104 
-8.355 47.522 8.878 
-8.526 48.494 8.857 
-8.335 47.409 8.609 
-8.334 47.401 8.559 
-8.557 48.666 8.736 
-8.132 46.252 8.206 
-8.134 46.268 8.16 
-8.134 46.263 8.111 
-8.149 46.354 8.078 
-8.131 46.246 8.012 
-8.131 46.248 7.964 
-8.143 46.316 7.927 
-8.152 46.37 7.888 
-8.14 46.302 7.828 
-8.111 46.134 7.753 
-8.137 46.28 7.728 
-8.114 46.154 7.659 
-8.334 47.401 7.373 
-8.334 47.402 7.227 
-8.39 47.719 7.226 
-8.343 47.451 7.087 
-8.192 46.597 6.718 
-8.289 47.146 6.748 
-8.238 46.857 6.659 
-8.197 46.623 6.482 
-8.065 45.872 5.904 
-8.081 45.968 5.396 
-8.07 45.905 5.295 
-8.765 49.851 5.494 
-8.855 50.362 5.345 
-8.803 50.068 5.262 
-8.827 50.205 5.122 
-8.432 47.962 4.452 
-9.002 51.201 4.387 
-8.909 50.656 4.288 
-8.592 48.858 3.787 
-8.613 48.976 3.697 
-8.612 48.972 3.646 
-8.476 48.203 3.541 
-8.477 48.208 3.491 
-8.486 48.257 3.445 
-8.495 48.31 3.401 
-8.563 48.695 3.329 
-8.525 48.481 3.264 
-8.52 48.45 3.212 
-8.26 46.978 2.973 
-8.501 48.345 2.468 
-8.498 48.329 2.419 
-8.44 48.002 2.354 
-8.5 48.339 2.322 
-8.46 48.113 2.262 
-8.417 47.869 2.201 
-8.414 47.852 2.152 
-8.43 47.943 2.107 
-8.427 47.93 2.059 
-8.47 48.175 1.923 
-8.475 48.204 1.874 
-8.494 48.308 1.83 
-8.419 47.595 9.699 
-8.419 47.594 9.648 
-8.419 47.595 9.599 
-8.413 47.561 9.541 
-8.415 47.57 9.492 
-8.414 47.567 9.442 
-8.41 47.545 9.387 
-8.414 47.564 9.342 
-8.404 47.508 9.28 
-8.41 47.544 9.237 
-8.412 47.554 9.19 
-8.41 47.545 9.137 
-8.392 47.442 9.069 
-8.41 47.543 9.038 
-8.409 47.538 8.988 
-8.409 47.539 8.937 
-8.404 47.511 8.882 
-8.408 47.529 8.836 
-8.408 47.528 8.786 
-8.407 47.527 8.737 
-8.586 48.533 8.871 
-8.408 47.528 8.636 
-8.392 47.44 8.521 
-8.306 46.953 8.386 
-8.302 46.933 8.333 
-8.301 46.928 8.282 
-8.304 46.946 8.237 
-8.3 46.921 8.183 
-8.305 46.949 8.14 
-8.307 46.96 8.092 
-8.312 46.987 8.047 
-8.178 46.229 7.87 
-8.195 46.328 7.838 
-8.191 46.303 7.787 
-8.19 46.3 7.737 
-8.195 46.328 7.693 
-8.206 46.39 7.656 
-8.263 46.711 7.66 
-8.267 46.734 7.616 
-8.272 46.76 7.571 
-8.134 45.98 7.255 
-8.177 46.227 7.245 
-8.164 46.154 7.185 
-8.686 49.101 7.594 
-8.689 49.117 7.545 
-8.39 47.427 7.237 
-8.446 47.742 7.235 
-7.992 45.178 6.706 
-8.237 46.566 6.767 
-8.244 46.604 6.725 
-8.327 47.074 6.744 
-8.259 46.688 6.641 
-8.02 45.337 6.401 
-8.344 47.171 6.368 
-8.351 47.206 6.325 
-8.112 45.86 6.002 
-8.148 46.061 5.46 
-8.108 45.838 5.292 
-8.133 45.978 5.166 
-8.855 50.056 5.318 
-8.417 47.582 4.762 
-8.426 47.63 4.719 
-8.486 47.971 4.508 
-8.74 49.393 4.389 
-9.081 51.317 4.507 
-9.067 51.24 4.396 
-8.961 50.64 4.292 
-8.645 48.857 3.742 
-8.662 48.957 3.65 
-8.534 48.234 3.498 
-8.533 48.227 3.448 
-8.541 48.276 3.404 
-8.559 48.374 3.262 
-8.566 48.413 3.215 
-8.303 46.934 2.975 
-8.302 46.928 2.926 
-8.488 47.98 2.357 
-8.552 48.34 2.327 
-8.506 48.081 2.265 
-8.472 47.89 2.207 
-8.468 47.869 2.158 
-8.475 47.907 2.11 
-8.479 47.928 2.064 
-8.552 48.34 1.786 
-8.452 47.512 9.433 
-8.426 47.37 9.354 
-8.439 47.439 9.319 
-8.434 47.412 9.263 
-8.477 47.655 9.26 
-8.458 47.547 9.19 
-8.421 47.338 9.099 
-8.435 47.417 9.066 
-8.475 47.642 9.058 
-8.442 47.458 8.974 
-8.436 47.423 8.917 
-8.435 47.42 8.866 
-8.441 47.452 8.824 
-8.439 47.44 8.771 
-8.176 45.966 8.451 
-8.449 47.498 8.683 
-8.447 47.485 8.63 
-8.445 47.473 8.579 
-8.44 47.446 8.524 
-8.441 47.45 8.476 
-8.327 46.811 8.263 
-8.326 46.803 8.213 
-8.337 46.867 8.175 
-8.349 46.933 8.139 
-8.334 46.849 8.075 
-8.345 46.913 8.036 
-8.35 46.938 7.992 
-8.219 46.203 7.818 
-8.353 46.959 7.899 
-8.231 46.274 7.734 
-8.247 46.359 7.7 
-8.244 46.343 7.65 
-8.304 46.682 7.657 
-8.312 46.727 7.616 
-8.142 45.769 7.412 
-8.143 45.78 7.365 
-8.162 45.887 7.336 
-8.151 45.821 7.231 
-8.606 48.375 7.583 
-8.304 46.683 7.269 
-8.218 46.198 7.146 
-8.318 46.759 7.184 
-8.613 48.414 7.389 
-8.044 45.22 6.806 
-8.038 45.191 6.663 
-8.04 45.201 6.617 
-8.036 45.18 6.566 
-8.033 45.163 6.518 
-8.054 45.277 6.487 
-8.352 46.95 6.679 
-8.054 45.28 6.394 
-8.073 45.387 6.362 
-8.692 48.861 6.699 
-8.23 46.256 6.198 
-8.234 46.275 6.152 
-8.149 45.799 5.947 
-8.159 45.855 5.908 
-8.049 45.24 5.782 
-8.058 45.29 5.743 
-8.082 45.424 5.712 
-8.08 45.414 5.664 
-8.181 45.983 5.168 
-8.791 49.401 5.299 
-8.902 50.029 5.316 
-8.835 49.65 4.716 
-8.76 49.232 4.627 
-8.514 47.85 4.448 
-9.132 51.321 4.404 
-9.007 50.619 4.291 
-8.698 48.888 3.745 
-8.698 48.884 3.696 
-8.704 48.922 3.648 
-8.579 48.22 3.448 
-8.573 48.187 3.398 
-8.587 48.266 3.354 
-8.606 48.37 3.263 
-8.344 46.902 2.925 
-8.349 46.931 2.878 
-8.526 47.924 2.307 
-8.545 48.03 2.263 
-8.513 47.854 2.158 
-8.519 47.888 2.11 
-8.502 47.522 9.381 
-8.503 47.527 9.334 
-8.542 47.745 9.275 
-8.475 47.367 9.152 
-8.51 47.561 9.139 
-8.533 47.693 9.065 
-8.529 47.669 9.011 
-8.225 45.96 8.447 
-8.487 47.423 8.616 
-8.234 46.009 8.312 
-8.494 47.46 8.524 
-8.374 46.793 8.356 
-8.373 46.787 8.305 
-8.374 46.794 8.257 
-8.379 46.821 8.214 
-8.378 46.817 8.163 
-8.376 46.803 8.113 
-8.382 46.835 8.069 
-8.38 46.823 8.018 
-8.407 46.974 7.996 
-8.266 46.189 7.813 
-8.277 46.25 7.776 
-8.299 46.372 7.748 
-8.283 46.285 7.684 
-8.185 45.735 7.546 
-8.191 45.77 7.504 
-8.189 45.761 7.456 
-8.193 45.781 7.411 
-8.191 45.773 7.361 
-8.199 45.813 7.321 
-8.197 45.803 7.271 
-8.201 45.827 7.229 
-8.21 45.877 7.188 
-8.4 46.938 7.305 
-8.268 46.199 7.143 
-8.384 46.844 7.194 
-8.423 47.067 7.033 
-8.44 47.159 6.998 
-8.462 47.282 6.968 
-8.462 47.282 6.918 
-8.087 45.187 6.564 
-8.074 45.119 6.509 
-8.088 45.197 6.473 
-8.398 46.926 6.673 
-8.095 45.236 6.385 
-8.746 48.864 6.645 
-8.274 46.232 6.144 
-8.276 46.246 6.099 
-8.231 45.994 5.402 
-8.833 49.356 5.291 
-9.197 51.385 4.457 
-9.188 51.338 4.401 
-9.055 50.592 4.285 
-8.734 48.806 4.085 
-8.748 48.882 3.692 
-8.752 48.903 3.643 
-8.624 48.19 3.442 
-8.624 48.194 3.394 
-8.635 48.252 3.349 
-8.649 48.33 3.306 
-8.649 48.333 3.256 
-8.576 47.925 3.179 
-8.579 47.94 3.083 
-8.396 46.924 2.874 
-8.401 46.951 2.829 
-8.403 46.959 2.781 
-8.423 47.073 2.692 
-8.745 48.869 2.696 
-8.572 47.907 2.302 
-8.568 47.886 2.252 
-8.562 47.851 2.154 
-8.564 47.862 2.105 
-8.545 47.475 9.378 
-8.548 47.49 9.333 
-8.558 47.544 9.142 
-8.587 47.707 9.074 
-8.589 47.715 9.026 
-8.268 45.932 8.448 
-8.528 47.376 8.664 
-8.268 45.933 8.304 
-8.545 47.469 8.531 
-8.302 46.124 8.242 
-8.305 46.139 8.196 
-8.546 47.475 8.383 
-8.549 47.491 8.337 
-8.581 47.671 8.318 
-8.583 47.681 8.271 
-8.43 46.83 8.074 
-8.363 46.46 7.914 
-8.354 46.412 7.857 
-8.326 46.256 7.783 
-8.321 46.228 7.73 
-8.228 45.713 7.595 
-8.232 45.736 7.552 
-8.235 45.753 7.507 
-8.235 45.753 7.46 
-8.418 46.764 7.576 
-8.226 45.703 7.356 
-8.234 45.746 7.316 
-8.253 45.85 7.238 
-8.406 46.685 7.321 
-8.267 45.916 7.152 
-8.33 46.265 7.159 
-8.304 46.12 7.088 
-8.463 47.004 7.127 
-8.46 46.984 7.075 
-8.473 47.058 7.038 
-8.473 47.061 6.989 
-8.515 47.29 6.975 
-8.532 47.384 6.939 
-8.515 47.293 6.876 
-8.854 49.171 7.1 
-8.481 47.101 6.751 
-8.845 49.121 6.888 
-8.847 49.131 6.84 
-8.802 48.882 6.653 
-8.688 48.249 6.418 
-8.285 46.017 5.552 
-8.284 46.013 5.457 
-8.279 45.985 5.406 
-8.114 45.068 5.253 
-8.857 49.194 4.625 
-8.86 49.208 4.576 
-8.666 48.135 4.18 
-9.105 50.57 4.289 
-8.784 48.785 4.038 
-8.796 48.858 3.695 
-8.799 48.872 3.646 
-8.439 46.873 3.45 
-8.676 48.193 3.4 
-8.685 48.239 3.353 
-8.696 48.302 3.309 
-8.696 48.299 3.259 
-8.635 47.965 3.09 
-8.456 46.972 2.787 
-8.466 47.028 2.743 
-8.471 47.057 2.696 
-8.803 48.896 2.703 
-8.607 47.809 2.35 
-8.614 47.851 2.305 
-8.612 47.84 2.255 
-8.611 47.835 2.205 
-8.609 47.823 2.157 
-8.606 47.809 2.107 
-8.593 47.475 9.38 
-8.608 47.557 9.146 
-8.64 47.734 9.08 
-8.312 45.926 8.689 
-8.29 45.806 8.618 
-8.307 45.899 8.586 
-8.303 45.875 8.535 
-8.306 45.891 8.489 
-8.309 45.912 8.446 
-8.566 47.327 8.656 
-8.705 48.093 8.745 
-8.311 45.923 8.303 
-8.591 47.465 8.532 
-8.669 47.896 8.56 
-8.339 46.076 8.186 
-8.695 48.039 8.484 
-8.593 47.476 8.286 
-8.597 47.499 8.241 
-8.474 46.82 8.074 
-8.502 46.976 8.003 
-8.364 46.211 7.824 
-8.392 46.366 7.803 
-8.408 46.456 7.769 
-8.383 46.315 7.697 
-8.385 46.331 7.652 
-8.387 46.338 7.604 
-8.398 46.402 7.567 
-8.411 46.473 7.53 
-8.344 46.101 7.421 
-8.339 46.076 7.37 
-8.308 45.903 7.294 
-8.301 45.866 7.242 
-8.439 46.625 7.312 
-8.383 46.319 7.169 
-8.455 46.712 7.18 
-8.508 47.005 7.178 
-8.513 47.035 7.133 
-8.496 46.938 7.069 
-8.571 47.356 7.084 
-8.515 47.044 6.988 
-8.544 47.202 6.963 
-8.593 47.473 6.953 
-8.773 48.466 7.048 
-8.522 47.082 6.749 
-8.184 45.22 6.437 
-8.161 45.09 6.371 
-8.183 45.211 6.341 
-8.895 49.143 6.843 
-8.852 48.906 6.658 
-8.34 46.08 6.13 
-8.348 46.123 6.089 
-8.355 46.16 6.046 
-8.289 45.797 5.762 
-8.329 46.019 5.742 
-8.207 45.336 5.611 
-8.305 45.877 5.63 
-9.028 49.862 6.069 
-9.002 49.72 6 
-8.142 44.978 5.381 
-8.19 45.241 5.227 
-8.343 46.089 5.088 
-8.711 48.114 5.262 
-8.903 49.176 4.624 
-8.906 49.194 4.575 
-8.758 48.376 4.252 
-8.706 48.09 4.177 
-9.157 50.578 4.29 
-9.252 51.103 4.231 
-9.191 50.768 4.047 
-8.489 46.896 3.691 
-8.489 46.896 3.643 
-8.491 46.904 3.595 
-8.489 46.898 3.548 
-8.491 46.905 3.5 
-8.486 46.878 3.451 
-8.491 46.906 3.404 
-8.491 46.908 3.309 
-8.716 48.15 3.347 
-8.734 48.245 3.306 
-8.683 47.964 3.237 
-8.687 47.988 3.141 
-8.519 47.064 2.746 
-8.522 47.083 2.698 
-8.535 47.151 2.653 
-8.573 47.36 2.618 
-8.597 47.495 2.384 
-8.65 47.786 2.349 
-8.651 47.792 2.204 
-8.647 47.773 2.155 
-8.643 47.751 2.105 
-8.884 49.082 1.416 
-8.652 47.53 9.189 
-8.341 45.828 8.811 
-8.343 45.837 8.765 
-8.345 45.847 8.719 
-8.348 45.861 8.674 
-8.349 45.869 8.627 
-8.351 45.882 8.58 
-8.353 45.89 8.535 
-8.35 45.872 8.483 
-8.349 45.871 8.436 
-8.345 45.845 8.382 
-8.317 45.69 8.305 
-8.348 45.863 8.29 
-8.326 45.744 8.22 
-8.347 45.859 8.193 
-8.365 45.954 8.162 
-8.365 45.958 8.114 
-8.378 46.027 8.079 
-8.379 46.031 8.031 
-8.64 47.463 8.232 
-8.644 47.486 8.186 
-8.471 46.536 7.973 
-8.464 46.497 7.919 
-8.51 46.75 7.815 
-8.521 46.814 7.776 
-8.364 45.951 7.586 
-8.369 45.98 7.542 
-8.477 46.572 7.592 
-8.397 46.131 7.472 
-8.393 46.11 7.42 
-8.397 46.131 7.376 
-8.399 46.144 7.329 
-8.496 46.672 7.366 
-8.488 46.632 7.311 
-8.459 46.469 7.236 
-8.445 46.392 7.177 
-8.467 46.513 7.147 
-8.625 47.384 7.232 
-8.623 47.372 7.181 
-8.623 47.371 7.131 
-8.62 47.352 7.08 
-8.81 48.396 7.185 
-8.555 47 6.93 
-8.554 46.99 6.879 
-8.525 46.834 6.76 
-8.223 45.176 6.473 
-8.222 45.171 6.427 
-8.23 45.217 6.386 
-8.222 45.169 6.332 
-8.234 45.238 6.296 
-8.947 49.149 6.789 
-8.906 48.923 6.657 
-8.718 47.894 6.418 
-8.769 48.171 6.405 
-8.842 48.575 6.409 
-8.392 46.106 6.035 
-8.295 45.569 5.917 
-8.325 45.737 5.845 
-8.262 45.389 5.755 
-8.313 45.671 5.743 
-8.355 45.902 5.724 
-8.241 45.277 5.601 
-8.34 45.821 5.62 
-9.043 49.676 6.043 
-8.187 44.98 5.425 
-8.19 44.996 5.38 
-8.197 45.033 5.339 
-8.403 46.165 5.188 
-9.098 49.98 5.567 
-8.386 46.072 5.083 
-8.748 48.057 5.252 
-8.748 48.06 5.204 
-8.758 48.115 5.16 
-8.903 48.907 4.946 
-8.906 48.925 4.896 
-8.946 49.147 4.618 
-8.715 47.88 4.302 
-8.791 48.296 4.241 
-8.741 48.02 4.167 
-9.204 50.562 4.285 
-9.207 50.58 4.236 
-8.878 48.776 4.034 
-8.889 48.834 3.939 
-9.392 51.593 4.109 
-9.238 50.748 3.991 
-8.928 49.049 3.756 
-8.893 48.857 3.692 
-8.532 46.876 3.447 
-8.532 46.875 3.398 
-8.536 46.899 3.352 
-8.534 46.889 3.304 
-8.532 46.878 3.255 
-8.774 48.204 3.299 
-8.561 47.038 2.836 
-8.559 47.026 2.786 
-8.972 49.296 2.872 
-8.6 47.25 2.655 
-8.64 47.473 2.379 
-8.643 47.49 2.331 
-8.704 47.827 2.201 
-8.691 47.757 2.151 
-8.581 46.862 8.77 
-8.395 45.847 8.437 
-8.407 45.915 8.401 
-8.783 47.962 8.725 
-8.403 45.892 8.301 
-8.787 47.983 8.579 
-8.657 47.278 8.353 
-8.669 47.34 8.315 
-8.457 46.187 8.064 
-8.433 46.058 7.994 
-8.437 46.075 7.948 
-8.509 46.469 7.967 
-8.536 46.619 7.945 
-8.548 46.685 7.907 
-8.555 46.718 7.865 
-8.539 46.631 7.801 
-8.726 47.651 7.873 
-8.572 46.815 7.685 
-8.572 46.813 7.637 
-8.503 46.438 7.527 
-8.466 46.236 7.446 
-8.472 46.267 7.404 
-8.496 46.399 7.376 
-8.527 46.566 7.355 
-8.534 46.607 7.312 
-8.432 46.05 7.176 
-8.498 46.41 7.185 
-8.461 46.206 7.105 
-8.679 47.394 7.24 
-8.565 46.772 7.096 
-8.569 46.795 7.05 
-8.57 46.8 7.003 
-8.573 46.815 6.956 
-8.696 47.487 7.008 
-8.61 47.021 6.89 
-8.635 47.154 6.86 
-8.886 48.526 7.01 
-8.274 45.188 6.48 
-8.305 45.358 6.459 
-9 49.146 6.895 
-8.289 45.272 6.306 
-8.991 49.097 6.787 
-8.768 47.881 6.571 
-8.762 47.849 6.516 
-8.771 47.898 6.473 
-8.826 48.198 6.465 
-8.799 48.05 6.394 
-8.824 48.186 6.364 
-8.336 45.524 5.965 
-8.336 45.527 5.917 
-8.351 45.609 5.834 
-8.365 45.684 5.798 
-8.374 45.734 5.756 
-8.416 45.963 5.737 
-8.387 45.804 5.671 
-9.036 49.344 6.058 
-8.224 44.915 5.469 
-8.233 44.967 5.428 
-8.365 45.684 5.467 
-8.395 45.848 5.441 
-8.402 45.885 5.397 
-8.451 46.153 5.192 
-8.447 46.134 5.143 
-9.122 49.812 5.502 
-9.133 49.871 5.456 
-8.812 48.124 5.167 
-8.795 48.027 5.108 
-8.948 48.866 5.047 
-8.952 48.885 4.998 
-9.027 49.295 4.687 
-8.759 47.833 4.353 
-8.766 47.872 4.307 
-8.791 48.012 4.221 
-9.257 50.552 4.239 
-8.931 48.776 3.94 
-9.439 51.547 4.111 
-9.443 51.566 4.061 
-9.295 50.758 3.944 
-8.969 48.984 3.756 
-8.944 48.844 3.696 
-8.922 48.725 3.637 
-9.344 51.027 3.758 
-8.593 46.933 3.169 
-8.795 48.033 3.193 
-8.983 49.061 3.213 
-8.606 47.007 2.886 
-8.607 47.009 2.839 
-9.021 49.266 2.924 
-9.017 49.249 2.874 
-9.009 49.204 2.821 
-8.692 47.475 2.431 
-8.694 47.486 2.384 
-8.703 47.534 2.338 
-8.744 47.762 2.203 
-8.738 47.726 2.154 
-8.982 49.06 1.416 
-8.623 46.848 8.769 
-8.436 45.833 8.436 
-8.447 45.893 8.302 
-8.685 47.183 8.437 
-8.483 46.09 8.193 
-8.488 46.119 8.149 
-8.481 46.077 8.095 
-8.492 46.138 8.057 
-8.506 46.214 8.023 
-8.581 46.623 8.044 
-8.548 46.44 7.964 
-8.537 46.38 7.906 
-8.579 46.608 7.799 
-8.577 46.598 7.748 
-8.593 46.686 7.715 
-8.603 46.742 7.675 
-8.611 46.785 7.634 
-8.547 46.437 7.528 
-8.587 46.654 7.514 
-8.552 46.465 7.436 
-8.566 46.537 7.399 
-8.566 46.542 7.352 
-8.469 46.014 7.221 
-8.505 46.211 7.203 
-8.502 46.191 7.153 
-8.488 46.118 7.093 
-8.485 46.102 7.043 
-8.607 46.763 7.095 
-8.612 46.789 7.05 
-8.617 46.815 7.006 
-8.612 46.787 6.953 
-8.651 46.99 6.837 
-8.32 45.196 6.483 
-8.658 47.029 6.698 
-8.932 48.514 6.859 
-9.051 49.16 6.899 
-8.338 45.291 6.31 
-8.795 47.769 6.605 
-8.794 47.763 6.556 
-8.799 47.792 6.51 
-8.806 47.83 6.465 
-8.817 47.887 6.424 
-8.818 47.896 6.375 
-8.869 48.174 6.363 
-8.503 46.187 6.052 
-8.508 46.211 6.007 
-8.413 45.699 5.895 
-8.398 45.619 5.837 
-8.41 45.68 5.798 
-8.425 45.762 5.761 
-8.44 45.847 5.724 
-8.45 45.897 5.684 
-8.701 47.262 5.803 
-8.699 47.252 5.755 
-9.127 49.57 5.985 
-9.089 49.367 5.909 
-8.432 45.802 5.436 
-8.445 45.871 5.397 
-8.456 45.935 5.31 
-8.3 45.085 5.165 
-8.475 46.037 5.133 
-8.667 47.075 5.2 
-8.665 47.066 5.15 
-9.283 50.419 5.414 
-8.765 47.609 4.624 
-8.805 47.827 4.353 
-8.81 47.855 4.306 
-8.817 47.893 4.261 
-8.877 48.221 4.19 
-9.299 50.506 4.236 
-8.982 48.787 3.942 
-8.988 48.823 3.894 
-9.021 48.999 3.808 
-8.997 48.871 3.748 
-9.001 48.892 3.701 
-8.991 48.838 3.646 
-9.391 51.008 3.757 
-8.628 46.87 3.309 
-8.854 48.094 3.345 
-8.636 46.912 3.216 
-8.627 46.864 3.164 
-8.638 46.923 3.12 
-8.643 46.953 3.075 
-8.641 46.94 3.026 
-9.115 49.511 3.142 
-8.642 46.945 2.882 
-9.068 49.261 2.925 
-9.069 49.265 2.876 
-8.75 47.537 2.387 
-8.794 47.777 2.303 
-8.797 47.793 2.254 
-8.781 47.705 2.201 
-8.782 47.708 2.153 
-9.033 49.075 1.417 
-8.671 46.848 8.964 
-8.728 47.155 8.874 
-8.675 46.869 8.77 
-8.475 45.79 8.472 
-8.478 45.805 8.428 
-8.485 45.846 8.291 
-8.721 47.117 8.471 
-8.528 46.078 8.237 
-8.988 48.558 8.629 
-8.996 48.601 8.585 
-8.548 46.185 8.111 
-8.622 46.582 8.131 
-8.57 46.302 8.035 
-8.549 46.19 7.967 
-8.566 46.282 7.934 
-8.559 46.24 7.879 
-8.585 46.382 7.758 
-8.589 46.403 7.712 
-8.623 46.588 7.696 
-8.687 46.931 7.703 
-8.631 46.632 7.606 
-8.655 46.762 7.578 
-8.601 46.467 7.481 
-8.634 46.648 7.463 
-8.607 46.501 7.39 
-8.584 46.379 7.324 
-8.565 46.273 7.258 
-8.538 46.13 7.187 
-8.535 46.11 7.137 
-8.52 46.03 7.076 
-8.53 46.085 7.038 
-8.533 46.103 6.992 
-8.66 46.785 6.999 
-8.66 46.786 6.95 
-8.665 46.812 6.906 
-8.671 46.845 6.862 
-8.695 46.977 6.832 
-8.689 46.942 6.779 
-8.675 46.869 6.719 
-8.7 47.004 6.691 
-8.981 48.521 6.856 
-8.981 48.519 6.805 
-9.045 48.863 6.804 
-8.384 45.299 6.26 
-9.077 49.038 6.727 
-9.067 48.985 6.669 
-8.868 47.91 6.374 
-8.875 47.945 6.33 
-8.91 48.133 6.304 
-8.908 48.127 6.253 
-8.441 45.607 5.879 
-8.447 45.637 5.836 
-8.442 45.61 5.786 
-8.471 45.769 5.759 
-8.484 45.84 5.72 
-8.496 45.901 5.681 
-8.742 47.228 5.796 
-9.245 49.94 6.079 
-9.231 49.866 6.018 
-8.498 45.914 5.492 
-8.496 45.901 5.445 
-8.493 45.887 5.253 
-8.708 47.047 5.145 
-8.717 47.096 5.103 
-8.703 47.021 4.902 
-8.713 47.073 4.859 
-8.814 47.619 4.622 
-8.817 47.638 4.576 
-9.082 49.065 4.662 
-9.343 50.475 4.641 
-8.848 47.805 4.347 
-8.854 47.834 4.3 
-8.872 47.933 4.261 
-8.92 48.195 4.234 
-8.914 48.16 4.181 
-9.347 50.497 4.231 
-9.437 50.983 4.115 
-9.027 48.772 3.886 
-9.383 50.694 3.989 
-9.062 48.962 3.802 
-9.048 48.885 3.745 
-9.024 48.755 3.686 
-9.43 50.947 3.8 
-8.67 46.848 3.303 
-8.895 48.062 3.339 
-8.875 47.952 3.234 
-8.878 47.968 3.186 
-8.687 46.938 3.07 
-8.686 46.933 3.021 
-8.693 46.972 2.977 
-9.13 49.33 3.076 
-8.743 47.241 2.754 
-8.818 47.649 2.437 
-8.802 47.561 2.385 
-8.832 47.723 2.344 
-8.836 47.746 2.297 
-8.824 47.682 2.245 
-8.821 47.668 2.195 
-9.079 49.059 1.412 
-8.724 46.862 8.973 
-8.731 46.898 8.929 
-8.764 47.072 8.914 
-8.765 47.081 8.866 
-8.736 46.923 8.786 
-8.737 46.931 8.739 
-8.755 47.023 8.608 
-8.759 47.045 8.562 
-8.538 45.858 8.299 
-9.044 48.576 8.74 
-9.047 48.588 8.692 
-9.041 48.556 8.635 
-9.042 48.561 8.584 
-9.036 48.531 8.529 
-8.673 46.586 8.138 
-8.619 46.292 8.039 
-8.631 46.359 7.809 
-8.637 46.39 7.765 
-8.644 46.428 7.722 
-8.67 46.566 7.698 
-8.657 46.499 7.638 
-8.658 46.503 7.591 
-8.665 46.538 7.548 
-8.323 44.706 7.203 
-8.333 44.759 7.166 
-8.348 44.842 7.132 
-8.63 46.352 7.325 
-8.59 46.141 7.243 
-8.563 45.993 7.172 
-8.573 46.045 7.133 
-8.56 45.977 7.074 
-8.593 46.155 7.054 
-8.584 46.106 6.998 
-8.723 46.853 6.82 
-8.732 46.9 6.779 
-8.538 45.86 6.58 
-8.536 45.848 6.532 
-9.035 48.525 6.812 
-9.035 48.523 6.763 
-8.441 45.338 6.271 
-9.127 49.017 6.73 
-9.117 48.964 6.672 
-8.646 46.439 6.232 
-8.716 46.815 6.233 
-8.928 47.952 6.337 
-8.685 46.649 6.115 
-8.609 46.242 6.014 
-8.511 45.716 5.899 
-8.524 45.784 5.86 
-8.531 45.825 5.819 
-8.499 45.651 5.749 
-8.542 45.881 5.73 
-8.514 45.73 5.665 
-8.625 46.327 5.691 
-8.536 45.848 5.538 
-8.541 45.875 5.493 
-9.25 49.678 5.899 
-8.541 45.878 5.399 
-8.554 45.945 5.361 
-8.534 45.841 5.301 
-8.486 45.584 5.131 
-9.311 50.008 5.578 
-8.925 47.938 5.003 
-8.75 47.001 4.857 
-8.75 47.001 4.808 
-9.379 50.372 4.637 
-8.896 47.783 4.35 
-8.906 47.835 4.306 
-9.362 50.285 4.476 
-8.969 48.174 4.238 
-8.96 48.129 4.184 
-9.403 50.501 4.185 
-9.576 51.43 4.208 
-9.568 51.388 4.153 
-9.08 48.772 3.891 
-9.103 48.893 3.852 
-9.091 48.832 3.797 
-9.107 48.914 3.753 
-9.08 48.769 3.693 
-9.515 51.104 3.817 
-9.523 51.145 3.769 
-8.942 48.03 3.342 
-8.733 46.912 3.074 
-8.734 46.92 3.026 
-8.739 46.946 2.98 
-8.746 46.981 2.934 
-8.744 46.969 2.885 
-8.792 47.228 2.805 
-8.792 47.23 2.758 
-8.866 47.625 2.732 
-8.864 47.616 2.682 
-8.863 47.61 2.585 
-8.86 47.596 2.439 
-8.868 47.637 2.393 
-8.877 47.689 2.347 
-8.871 47.656 2.249 
-8.874 47.671 2.2 
-9.131 49.055 1.417 
-8.785 46.947 9.089 
-8.778 46.912 9.032 
-8.794 46.996 9 
-8.779 46.918 8.935 
-8.793 46.992 8.901 
-8.792 46.982 8.849 
-8.787 46.958 8.794 
-8.79 46.973 8.749 
-8.788 46.966 8.697 
-8.79 46.972 8.65 
-9.092 48.585 8.795 
-8.683 46.402 8.253 
-8.677 46.371 8.198 
-8.667 46.316 8.141 
-8.71 46.533 7.84 
-8.707 46.518 7.788 
-8.705 46.509 7.737 
-8.692 46.437 7.678 
-8.402 44.892 7.375 
-8.419 44.982 7.344 
-8.408 44.923 7.287 
-8.699 46.476 7.49 
-8.729 46.635 7.468 
-8.389 44.823 7.13 
-8.701 46.488 7.348 
-8.705 46.507 7.302 
-8.522 45.53 7.101 
-8.609 45.997 7.127 
-8.641 46.166 7.104 
-8.617 46.038 7.038 
-9.142 48.837 7.414 
-9.145 48.857 7.366 
-9.22 49.256 7.376 
-9.224 49.275 7.327 
-9.219 49.251 7.274 
-9.219 49.252 7.222 
-9.214 49.224 7.166 
-8.767 46.839 6.771 
-8.778 46.899 6.731 
-8.578 45.832 6.531 
-8.579 45.834 6.483 
-9.087 48.544 6.767 
-8.487 45.346 6.273 
-9.133 48.793 6.701 
-9.155 48.906 6.665 
-9.096 48.594 6.572 
-8.706 46.512 6.194 
-8.767 46.839 6.19 
-8.74 46.693 6.122 
-8.73 46.639 6.066 
-8.726 46.622 6.017 
-8.576 45.82 5.866 
-8.56 45.734 5.808 
-8.569 45.782 5.767 
-8.55 45.681 5.706 
-8.83 47.177 5.846 
-8.664 46.289 5.687 
-9.315 49.763 6.012 
-9.314 49.756 5.959 
-8.624 46.074 5.472 
-8.584 45.861 5.398 
-9.572 51.136 5.968 
-9.583 51.193 5.921 
-8.58 45.84 5.254 
-9.333 49.858 5.665 
-9.322 49.8 5.504 
-8.824 47.146 4.969 
-8.972 47.932 5.004 
-8.765 46.831 4.84 
-8.784 46.932 4.801 
-9.205 49.177 4.982 
-8.917 47.64 4.582 
-8.924 47.678 4.536 
-8.921 47.662 4.487 
-9.587 51.215 4.768 
-8.942 47.776 4.398 
-8.947 47.8 4.353 
-9.394 50.189 4.518 
-9.401 50.223 4.471 
-9.378 50.101 4.408 
-9.002 48.094 4.182 
-9.009 48.134 4.137 
-9.46 50.543 4.189 
-9.451 50.494 4.132 
-9.617 51.379 4.153 
-9.527 50.898 4.062 
-9.134 48.802 3.846 
-9.145 48.858 3.8 
-9.128 48.771 3.742 
-9.552 51.034 3.865 
-9.574 51.147 3.821 
-8.977 47.964 3.388 
-8.981 47.988 3.34 
-8.954 47.842 3.086 
-9.176 49.027 3.113 
-8.794 46.992 2.935 
-8.794 46.988 2.886 
-8.796 47 2.84 
-8.791 46.973 2.79 
-8.806 47.055 2.748 
-8.909 47.606 2.489 
-8.91 47.609 2.44 
-8.914 47.631 2.393 
-8.912 47.624 2.247 
-8.916 47.644 2.199 
-8.825 46.9 9.175 
-8.827 46.914 9.128 
-8.834 46.949 9.086 
-8.834 46.951 9.037 
-8.832 46.939 8.986 
-8.839 46.974 8.943 
-8.827 46.911 8.883 
-8.83 46.93 8.836 
-8.846 47.013 8.802 
-8.853 47.05 8.76 
-8.866 47.12 8.723 
-8.783 46.676 8.299 
-8.424 44.772 7.586 
-8.429 44.797 7.544 
-8.432 44.817 7.5 
-8.434 44.826 7.454 
-8.438 44.845 7.412 
-8.43 44.804 7.358 
-8.45 44.911 7.329 
-8.446 44.887 7.278 
-8.442 44.87 7.228 
-8.445 44.884 7.184 
-8.44 44.859 7.133 
-8.447 44.895 7.093 
-8.46 44.961 7.056 
-8.466 44.993 7.014 
-8.572 45.555 7.055 
-9.206 48.923 7.525 
-8.687 46.166 7.054 
-9.187 48.819 7.408 
-9.196 48.868 7.364 
-9.223 49.014 7.337 
-8.839 46.974 6.982 
-9.19 48.836 7.209 
-9.258 49.197 7.211 
-8.838 46.97 6.835 
-8.815 46.845 6.769 
-8.637 45.902 6.584 
-8.825 46.901 6.68 
-8.623 45.829 6.479 
-9.241 49.106 6.891 
-8.541 45.392 6.276 
-9.173 48.746 6.691 
-9.192 48.85 6.654 
-9.141 48.578 6.566 
-8.761 46.563 6.102 
-8.61 45.757 5.948 
-8.641 45.923 5.924 
-8.619 45.807 5.861 
-8.593 45.667 5.797 
-8.83 46.927 5.908 
-8.871 47.143 5.886 
-8.875 47.167 5.841 
-9.345 49.66 5.944 
-8.668 46.068 5.468 
-8.582 45.598 5.364 
-8.619 45.795 5.341 
-8.622 45.822 5.297 
-9.266 49.228 5.639 
-9.368 49.768 5.651 
-8.878 47.173 4.968 
-9.01 47.87 4.994 
-8.829 46.915 4.796 
-8.839 46.963 4.754 
-9.251 49.153 4.925 
-8.939 47.494 4.661 
-8.976 47.692 4.486 
-8.977 47.699 4.437 
-8.984 47.737 4.391 
-9.637 51.203 4.659 
-9.434 50.121 4.508 
-9.451 50.216 4.467 
-9.429 50.099 4.404 
-9.051 48.092 4.178 
-9.052 48.094 4.13 
-9.503 50.491 4.128 
-9.562 50.805 4.103 
-9.564 50.814 4.051 
-9.541 50.693 3.991 
-9.181 48.785 3.79 
-9.623 51.128 3.919 
-9.611 51.066 3.863 
-9.601 51.012 3.806 
-9.572 50.857 3.744 
-9.525 50.608 3.673 
-8.988 47.759 3.417 
-9.022 47.937 3.382 
-9.02 47.931 3.332 
-8.998 47.816 3.032 
-9.206 48.92 3.052 
-9.211 48.945 3.003 
-8.849 47.026 2.79 
-8.853 47.043 2.744 
-8.853 47.047 2.695 
-8.958 47.603 2.485 
-8.953 47.579 2.434 
-8.959 47.61 2.292 
-8.961 47.622 2.243 
-8.876 46.903 9.182 
-8.878 46.912 9.134 
-8.881 46.931 9.089 
-8.874 46.892 9.032 
-8.876 46.9 8.985 
-8.895 47 8.954 
-8.875 46.894 8.886 
-8.908 47.072 8.771 
-8.919 47.127 8.731 
-9.103 48.099 8.861 
-9.111 48.139 8.818 
-9.078 47.966 8.735 
-8.467 44.744 7.634 
-8.471 44.763 7.59 
-8.476 44.787 7.548 
-8.478 44.802 7.503 
-8.476 44.792 7.454 
-8.48 44.809 7.411 
-8.483 44.825 7.367 
-8.791 46.453 7.587 
-8.479 44.808 7.271 
-8.482 44.82 7.225 
-8.814 46.572 7.461 
-8.489 44.859 7.139 
-8.594 45.414 7.181 
-8.498 44.904 7.053 
-8.496 44.893 7.004 
-8.5 44.914 6.961 
-8.504 44.935 6.917 
-8.589 45.384 6.94 
-8.896 47.006 7.139 
-8.899 47.022 7.092 
-8.89 46.976 7.037 
-8.892 46.983 6.989 
-8.887 46.96 6.938 
-8.887 46.958 6.888 
-8.688 45.906 6.686 
-8.866 46.85 6.775 
-8.68 45.868 6.585 
-8.681 45.872 6.539 
-8.668 45.804 6.481 
-8.67 45.814 6.435 
-8.591 45.395 6.282 
-9.212 48.671 6.687 
-8.698 45.961 6.266 
-9.223 48.733 6.593 
-9.189 48.552 6.519 
-8.802 46.51 6.149 
-8.815 46.58 6.11 
-8.824 46.623 6.067 
-8.825 46.629 6.02 
-8.828 46.647 5.974 
-8.832 46.669 5.929 
-8.901 47.032 5.926 
-8.904 47.05 5.879 
-8.918 47.12 5.841 
-8.73 46.117 5.622 
-8.723 46.094 5.571 
-8.712 46.033 5.515 
-8.713 46.042 5.47 
-8.682 45.877 5.402 
-8.681 45.861 5.354 
-9.397 49.638 5.744 
-9.306 49.159 5.637 
-9.313 49.196 5.592 
-9.281 49.026 5.169 
-8.94 47.225 4.932 
-9.059 47.856 4.948 
-9.297 49.112 5.027 
-8.886 46.943 4.757 
-9.291 49.081 4.874 
-9.293 49.091 4.824 
-9.275 48.995 4.763 
-9.028 47.693 4.442 
-9.034 47.728 4.396 
-9.429 49.809 4.538 
-9.502 50.193 4.52 
-9.494 50.152 4.466 
-9.107 48.112 4.235 
-9.101 48.078 4.182 
-9.093 48.035 4.13 
-9.557 50.485 4.133 
-9.575 50.581 4.091 
-9.224 48.729 3.89 
-9.244 48.833 3.85 
-9.233 48.779 3.795 
-9.626 50.848 3.903 
-9.652 50.986 3.863 
-9.656 51.007 3.812 
-9.616 50.795 3.745 
-9.561 50.51 3.672 
-9.042 47.767 3.423 
-9.062 47.874 3.383 
-9.036 47.738 2.983 
-9.238 48.807 2.999 
-9.227 48.747 2.947 
-9.006 47.583 2.489 
-9.494 50.158 2.572 
-9.5 50.187 2.523 
-9.478 50.072 2.466 
-9.006 47.582 2.295 
-9.006 47.583 2.246 
-9.147 48.081 8.86 
-9.15 48.096 8.811 
-9.135 48.017 8.746 
-9.15 48.092 8.71 
-9.149 48.09 8.659 
-8.76 46.047 7.858 
-8.796 46.234 7.841 
-8.793 46.218 7.791 
-8.81 46.309 7.757 
-8.827 46.398 7.723 
-8.92 46.884 7.756 
-8.837 46.449 7.635 
-8.497 44.667 7.297 
-8.508 44.723 7.258 
-8.647 45.456 7.329 
-8.65 45.467 7.285 
-8.535 44.866 7.141 
-8.593 45.17 7.144 
-8.522 44.798 7.037 
-8.658 45.512 7.102 
-8.653 45.487 7.051 
-8.616 45.292 6.974 
-8.552 44.956 6.876 
-8.661 45.525 6.915 
-8.944 47.011 7.092 
-8.936 46.972 7.038 
-9.311 48.938 7.281 
-8.945 47.017 6.947 
-9.311 48.94 7.18 
-8.731 45.895 6.685 
-8.732 45.901 6.639 
-8.729 45.885 6.589 
-8.724 45.857 6.538 
-8.706 45.761 6.477 
-8.691 45.686 6.418 
-8.694 45.698 6.373 
-8.643 45.433 6.289 
-9.236 48.545 6.671 
-9.257 48.657 6.635 
-8.739 45.934 6.215 
-9.139 48.038 6.401 
-8.849 46.511 6.151 
-8.862 46.581 6.111 
-8.858 46.558 6.059 
-8.867 46.608 6.019 
-8.872 46.637 5.973 
-8.886 46.708 5.935 
-8.983 47.216 5.951 
-8.961 47.1 5.887 
-8.963 47.111 5.841 
-9.329 49.034 5.927 
-8.742 45.954 5.507 
-8.755 46.023 5.469 
-8.742 45.951 5.412 
-9.425 49.537 5.785 
-9.347 49.128 5.686 
-9.356 49.175 5.64 
-8.818 46.352 5.031 
-8.823 46.378 4.986 
-9.324 49.007 5.168 
-9.332 49.05 5.123 
-8.994 47.274 4.888 
-8.923 46.905 4.754 
-8.917 46.873 4.702 
-9.354 49.167 4.883 
-9.325 49.015 4.817 
-9.321 48.993 4.764 
-9.071 47.682 4.442 
-9.481 49.834 4.541 
-9.511 49.994 4.503 
-9.064 47.648 4.244 
-9.534 50.112 4.412 
-9.521 50.042 4.354 
-9.131 47.999 4.128 
-9.197 48.343 4.107 
-8.687 45.665 3.834 
-8.685 45.659 3.786 
-9.699 50.979 4.123 
-9.254 48.644 3.884 
-9.265 48.704 3.84 
-9.279 48.773 3.795 
-9.727 51.13 3.925 
-9.736 51.16 3.877 
-9.582 50.367 3.764 
-9.586 50.375 3.715 
-9.099 47.821 3.379 
-8.937 46.97 3.031 
-9.271 48.726 3.096 
-9.274 48.74 3.046 
-9.07 47.667 2.93 
-9.07 47.672 2.883 
-8.971 47.149 2.611 
-9.045 47.542 2.487 
-9.541 50.145 2.571 
-9.538 50.127 2.52 
-9.537 50.122 2.468 
-9.051 47.573 2.295 
-9.055 47.595 2.247 
-9.194 48.074 8.804 
-9.195 48.078 8.754 
-9.195 48.079 8.705 
-9.193 48.067 8.652 
-9.194 48.074 8.604 
-8.867 46.367 8.006 
-8.867 46.366 7.957 
-8.881 46.439 7.922 
-8.877 46.421 7.87 
-8.882 46.436 7.825 
-8.883 46.437 7.776 
-8.973 46.911 7.806 
-8.977 46.929 7.761 
-8.908 46.572 7.652 
-8.539 44.642 7.29 
-9.062 47.375 7.686 
-8.689 45.428 7.322 
-8.691 45.438 7.277 
-8.575 44.833 7.133 
-8.554 44.721 7.07 
-8.563 44.77 7.03 
-8.705 45.511 7.099 
-8.7 45.481 7.048 
-8.663 45.289 6.97 
-8.703 45.5 6.956 
-8.599 44.957 6.826 
-8.702 45.492 6.859 
-8.703 45.501 6.814 
-9.357 48.914 7.274 
-9.196 48.073 7.1 
-9.195 48.069 7.049 
-8.976 46.924 6.832 
-8.948 46.778 6.763 
-8.768 45.841 6.579 
-8.788 45.945 6.548 
-8.764 45.818 6.482 
-8.764 45.819 6.434 
-8.764 45.815 6.387 
-8.75 45.745 6.329 
-8.755 45.772 6.286 
-8.765 45.821 6.245 
-8.773 45.863 6.202 
-9.118 47.668 6.398 
-9.121 47.681 6.35 
-8.896 46.507 6.147 
-8.913 46.595 6.11 
-8.897 46.515 6.05 
-8.915 46.605 6.015 
-8.906 46.56 5.96 
-8.942 46.745 5.888 
-8.947 46.776 5.843 
-9.392 49.096 6.083 
-9.348 48.869 6.004 
-9.614 50.255 6.124 
-8.805 46.034 5.561 
-8.872 46.382 5.078 
-8.875 46.4 5.033 
-8.877 46.407 4.985 
-8.88 46.427 4.941 
-8.883 46.443 4.894 
-8.935 46.71 4.875 
-9.142 47.792 4.939 
-8.973 46.91 4.703 
-9.394 49.11 4.874 
-9.367 48.967 4.809 
-9.374 49.007 4.762 
-9.115 47.653 4.485 
-9.569 50.024 4.604 
-9.607 50.222 4.572 
-9.575 50.057 4.505 
-9.108 47.616 4.238 
-9.195 48.069 4.228 
-9.177 47.975 4.17 
-9.17 47.94 4.119 
-8.728 45.634 3.873 
-8.729 45.637 3.828 
-8.73 45.645 3.781 
-8.735 45.669 3.736 
-8.738 45.685 3.692 
-9.308 48.665 3.882 
-9.319 48.721 3.838 
-9.606 50.22 3.904 
-8.744 45.719 3.506 
-8.77 45.856 3.471 
-9.623 50.306 3.756 
-9.137 47.769 3.372 
-9.37 48.988 3.157 
-8.981 46.956 2.979 
-9.318 48.715 3.041 
-9.309 48.671 2.988 
-9.318 48.717 2.942 
-9.102 47.592 2.825 
-9.086 47.505 2.674 
-9.04 47.269 2.42 
-9.1 47.581 2.388 
-9.096 47.558 2.338 
-9.097 47.566 2.291 
-9.543 49.894 2.3 
-9.571 50.041 2.257 
-9.271 48.191 8.781 
-9.254 48.104 8.716 
-9.241 48.035 8.652 
-8.953 46.541 8.042 
-8.935 46.449 7.977 
-8.89 46.213 7.889 
-8.923 46.387 7.87 
-8.906 46.299 7.808 
-8.931 46.428 7.78 
-8.969 46.622 7.763 
-8.96 46.576 7.708 
-9.107 47.339 7.784 
-9.107 47.337 7.736 
-8.889 46.21 7.503 
-8.893 46.231 7.457 
-8.618 44.804 7.181 
-8.616 44.789 7.132 
-8.607 44.743 7.079 
-8.98 46.68 7.336 
-8.975 46.655 7.283 
-8.748 45.474 7.052 
-8.753 45.5 6.962 
-8.65 44.97 6.786 
-8.66 45.018 6.748 
-8.671 45.076 6.709 
-9.027 46.922 6.887 
-9.246 48.063 7.004 
-8.996 46.765 6.767 
-8.816 45.83 6.583 
-8.811 45.801 6.533 
-8.815 45.821 6.488 
-9.267 48.17 6.77 
-9.27 48.188 6.723 
-8.778 45.633 6.273 
-8.809 45.792 6.247 
-8.786 45.674 6.182 
-8.828 45.889 6.165 
-8.95 46.525 6.202 
-8.929 46.416 6.14 
-8.958 46.565 6.111 
-8.952 46.534 6.059 
-8.953 46.54 6.012 
-8.945 46.497 5.958 
-9.055 47.072 5.984 
-9.045 47.019 5.928 
-9.045 47.017 5.879 
-8.971 46.636 5.784 
-9.421 48.97 6.022 
-8.863 46.075 5.62 
-8.86 46.06 5.57 
-9.467 49.207 5.899 
-8.819 45.847 5.45 
-9.421 48.971 5.77 
-9.446 49.099 5.736 
-9.441 49.074 5.682 
-9.58 49.794 5.457 
-9.498 49.37 5.309 
-9.511 49.44 5.267 
-8.93 46.424 4.897 
-8.943 46.492 4.858 
-8.99 46.734 4.834 
-8.986 46.711 4.783 
-9.017 46.876 4.704 
-9.415 48.942 4.863 
-9.423 48.982 4.816 
-9.421 48.97 4.764 
-9.26 48.138 4.436 
-9.26 48.136 4.388 
-9.264 48.16 4.34 
-9.151 47.57 4.239 
-9.63 50.059 4.409 
-9.21 47.88 4.167 
-9.215 47.905 4.121 
-9.319 48.444 4.069 
-8.773 45.612 3.784 
-8.783 45.663 3.74 
-8.788 45.687 3.697 
-8.79 45.7 3.65 
-8.797 45.735 3.607 
-8.783 45.66 3.554 
-8.785 45.67 3.508 
-8.821 45.86 3.476 
-8.815 45.827 3.426 
-8.787 45.681 3.37 
-8.794 45.72 3.325 
-9.177 47.71 3.373 
-9.423 48.987 3.163 
-9.427 49.006 3.115 
-9.023 46.912 2.933 
-9.353 48.622 2.99 
-9.375 48.739 2.948 
-9.137 47.503 2.824 
-9.135 47.491 2.727 
-9.129 47.459 2.676 
-9.062 47.115 2.417 
-9.124 47.434 2.386 
-9.141 47.526 2.341 
-9.144 47.542 2.295 
-9.609 49.957 2.308 
-9.623 50.027 2.262 
-9.615 49.987 2.208 
-9.605 49.671 9.209 
-9.291 48.046 8.707 
-9.633 49.812 8.974 
-9.655 49.928 8.944 
-8.984 46.46 7.981 
-8.969 46.384 7.92 
-8.987 46.476 7.886 
-9.002 46.556 7.852 
-9.006 46.576 7.807 
-9.002 46.552 7.753 
-8.922 46.141 7.542 
-9.364 48.425 7.864 
-9.367 48.438 7.815 
-9.358 48.393 7.758 
-8.65 44.737 7.125 
-9.177 47.457 7.51 
-8.667 44.822 7.045 
-8.674 44.858 7.004 
-8.787 45.444 7.049 
-8.814 45.583 7.022 
-8.804 45.529 6.968 
-8.697 44.977 6.743 
-8.708 45.035 6.704 
-8.787 45.442 6.718 
-9.036 46.728 6.714 
-9.033 46.714 6.664 
-9.034 46.721 6.616 
-9.313 48.159 6.721 
-9.319 48.191 6.674 
-8.752 45.265 6.223 
-8.776 45.385 6.192 
-8.842 45.73 6.191 
-8.869 45.868 6.163 
-8.869 45.868 6.115 
-8.79 45.458 6.015 
-9.003 46.559 6.112 
-9.007 46.578 6.065 
-9.045 46.778 6.044 
-8.992 46.504 5.96 
-9.017 46.63 5.929 
-8.823 45.632 5.754 
-8.827 45.649 5.709 
-8.837 45.703 5.669 
-9.009 46.589 5.73 
-9.633 49.815 6.077 
-8.86 45.82 5.542 
-8.865 45.848 5.497 
-8.866 45.852 5.451 
-9.48 49.021 5.777 
-9.165 47.398 5.439 
-9.111 47.119 5.31 
-9.112 47.122 5.263 
-9.556 49.416 5.417 
-9.612 49.707 5.347 
-9.504 49.15 5.237 
-9.497 49.111 5.182 
-8.986 46.474 4.857 
-8.999 46.539 4.815 
-9.031 46.705 4.784 
-9.03 46.698 4.736 
-9.061 46.862 4.704 
-9.469 48.97 4.866 
-9.459 48.918 4.81 
-9.465 48.949 4.762 
-9.624 49.769 4.587 
-9.577 49.527 4.515 
-9.678 50.05 4.511 
-9.194 47.548 4.238 
-9.661 49.959 4.401 
-9.243 47.804 4.161 
-9.585 49.57 4.265 
-9.058 46.848 3.935 
-9.358 48.399 4.016 
-9.369 48.453 3.97 
-9.398 48.601 3.933 
-8.839 45.717 3.652 
-8.84 45.72 3.607 
-8.843 45.738 3.561 
-8.827 45.655 3.507 
-8.861 45.829 3.475 
-8.861 45.828 3.427 
-8.833 45.684 3.37 
-8.844 45.744 3.328 
-9.215 47.659 3.37 
-9.215 47.658 3.32 
-9.455 48.898 3.058 
-9.064 46.884 2.883 
-9.183 47.494 2.873 
-9.184 47.504 2.825 
-9.162 47.389 2.722 
-9.18 47.481 2.534 
-9.176 47.463 2.484 
-9.183 47.5 2.39 
-9.119 47.169 2.324 
-9.123 47.19 2.278 
-9.668 50.001 2.311 
-9.659 49.958 2.259 
-9.483 49.051 1.418 
-9.224 47.708 0.167 
-9.234 47.76 0.12 
-9.227 47.727 0.07 
-9.229 47.735 0.023 
-9.233 47.758 -0.026 
-9.239 47.79 -0.076 
-9.237 47.775 -0.123 
-9.234 47.763 -0.172 
-8.969 46.149 9.185 
-9.663 49.713 9.057 
-9.664 49.718 9.007 
-9.666 49.729 8.956 
-9.013 46.376 8.012 
-9.008 46.349 7.958 
-9.029 46.456 7.929 
-9.023 46.422 7.874 
-9.063 46.631 7.862 
-8.911 45.851 7.682 
-9.05 46.563 7.752 
-9.673 49.766 8.235 
-9.387 48.296 7.94 
-8.93 45.949 7.507 
-9.379 48.255 7.833 
-9.404 48.38 7.753 
-8.668 44.601 7.1 
-9.067 46.65 7.379 
-9.213 47.399 7.447 
-8.717 44.851 6.954 
-8.727 44.904 6.915 
-8.737 44.954 6.877 
-8.735 44.943 6.828 
-8.709 44.813 6.715 
-8.749 45.018 6.699 
-8.758 45.064 6.66 
-8.828 45.424 6.665 
-9.467 48.707 7.096 
-9.47 48.719 7.048 
-9.076 46.694 6.706 
-9.087 46.753 6.667 
-9.079 46.713 6.612 
-8.821 45.385 6.237 
-8.825 45.406 6.192 
-8.818 45.373 6.14 
-8.907 45.827 6.155 
-8.919 45.892 6.115 
-8.837 45.468 6.013 
-9.059 46.608 6.115 
-9.059 46.607 6.066 
-9.021 46.412 5.994 
-9.055 46.587 5.967 
-8.867 45.622 5.798 
-8.868 45.626 5.75 
-8.873 45.642 5.705 
-9.068 46.645 5.783 
-8.894 45.754 5.625 
-8.9 45.782 5.582 
-9.075 46.681 5.643 
-8.915 45.862 5.496 
-8.918 45.873 5.451 
-9.067 46.641 5.446 
-9.064 46.625 5.396 
-9.206 47.353 5.383 
-9.081 46.715 5.262 
-9.156 47.097 5.257 
-9.594 49.347 5.457 
-9.584 49.296 5.4 
-9.578 49.265 5.347 
-9.574 49.247 5.294 
-9.553 49.137 5.232 
-9.026 46.433 4.896 
-9.554 49.143 5.132 
-9.046 46.532 4.811 
-9.285 47.76 4.888 
-9.08 46.708 4.734 
-9.104 46.831 4.697 
-9.51 48.916 4.858 
-9.507 48.904 4.805 
-9.511 48.923 4.756 
-9.248 47.574 4.48 
-9.71 49.946 4.6 
-9.606 49.414 4.501 
-9.241 47.538 4.281 
-9.262 47.645 4.243 
-9.287 47.773 4.204 
-9.289 47.783 4.156 
-9.278 47.728 4.006 
-9.114 46.884 3.886 
-9.444 48.58 3.976 
-9.434 48.527 3.924 
-9.09 46.764 3.686 
-8.906 45.815 3.563 
-8.898 45.777 3.513 
-8.897 45.77 3.467 
-8.903 45.804 3.422 
-8.906 45.818 3.377 
-8.904 45.809 3.329 
-9.238 47.522 3.356 
-9.251 47.591 3.312 
-9.501 48.876 3.251 
-9.501 48.874 3.202 
-9.507 48.908 3.154 
-9.229 47.476 3.014 
-9.11 46.87 2.832 
-9.544 49.1 2.816 
-9.225 47.461 2.48 
-9.224 47.455 2.431 
-9.228 47.478 2.385 
-9.225 47.459 2.335 
-9.17 47.177 2.274 
-9.17 47.175 2.225 
-9.728 50.045 2.309 
-9.713 49.967 2.255 
-9.259 47.644 0.503 
-9.248 47.588 0.453 
-9.252 47.609 0.404 
-9.252 47.606 0.357 
-9.263 47.663 0.308 
-9.261 47.656 0.261 
-9.27 47.702 0.212 
-9.268 47.691 0.163 
-9.268 47.694 0.115 
-9.269 47.697 0.066 
-9.269 47.696 0.018 
-9.266 47.683 -0.031 
-9.273 47.717 -0.08 
-9.271 47.709 -0.127 
-9.275 47.731 -0.177 
-9.06 46.356 8.794 
-9.051 46.309 7.958 
-9.331 47.739 8.155 
-9.713 49.693 8.436 
-9.691 49.579 8.366 
-8.96 45.844 7.687 
-8.965 45.868 7.642 
-8.971 45.903 7.601 
-8.984 45.967 7.563 
-8.983 45.964 7.516 
-8.684 44.436 7.219 
-8.69 44.467 7.177 
-8.719 44.611 7.154 
-8.709 44.562 7.1 
-8.716 44.595 7.059 
-9.126 46.692 7.342 
-9.198 47.062 7.351 
-9.131 46.718 7.249 
-8.904 45.546 7.02 
-9.137 46.746 7.157 
-8.779 44.919 6.83 
-8.787 44.949 6.787 
-8.767 44.847 6.726 
-8.807 45.053 6.664 
-8.878 45.413 6.669 
-8.883 45.441 6.625 
-9.127 46.686 6.759 
-9.13 46.703 6.713 
-9.127 46.684 6.663 
-9.129 46.696 6.615 
-9.476 48.471 6.667 
-9.446 48.317 6.595 
-8.892 45.489 6.161 
-8.871 45.378 6.1 
-8.863 45.34 6.047 
-8.885 45.45 6.016 
-9.347 47.812 6.279 
-9.062 46.354 6.039 
-8.917 45.616 5.896 
-9.601 49.109 6.297 
-9.188 46.997 5.978 
-9.16 46.856 5.911 
-9.111 46.606 5.831 
-9.55 48.849 6.062 
-9.554 48.869 6.014 
-9.727 49.754 6.072 
-8.957 45.821 5.544 
-8.961 45.839 5.498 
-9.613 49.171 5.797 
-9.121 46.654 5.453 
-9.102 46.561 5.345 
-9.122 46.663 5.31 
-9.126 46.68 5.263 
-9.132 46.714 5.22 
-9.138 46.744 5.174 
-9.139 46.747 5.126 
-9.658 49.4 5.367 
-9.139 46.75 5.03 
-9.614 49.174 5.242 
-9.581 49.009 5.173 
-9.616 49.187 5.143 
-9.616 49.186 5.091 
-9.107 46.588 4.774 
-9.284 47.492 4.819 
-9.133 46.717 4.691 
-9.14 46.753 4.648 
-9.554 48.869 4.807 
-9.557 48.886 4.758 
-9.753 49.884 4.805 
-9.295 47.545 4.483 
-9.7 49.615 4.575 
-9.772 49.984 4.559 
-9.679 49.509 4.464 
-9.31 47.624 4.246 
-9.319 47.67 4.201 
-9.183 46.975 3.948 
-9.167 46.897 3.892 
-9.322 47.688 3.909 
-9.456 48.37 3.916 
-8.95 45.787 3.566 
-8.949 45.781 3.518 
-8.941 45.741 3.469 
-8.94 45.735 3.421 
-8.963 45.855 3.385 
-8.965 45.862 3.337 
-8.968 45.877 3.291 
-8.973 45.902 3.247 
-8.976 45.919 3.201 
-8.986 45.972 3.158 
-8.983 45.958 3.11 
-8.992 46.003 3.065 
-9.014 46.113 3.026 
-9.006 46.076 2.976 
-9.028 46.188 2.937 
-9.285 47.498 2.971 
-9.481 48.503 2.984 
-9.242 47.281 2.862 
-9.156 46.84 2.787 
-9.154 46.833 2.739 
-9.277 47.463 2.582 
-9.275 47.449 2.435 
-9.274 47.447 2.388 
-9.278 47.464 2.34 
-9.217 47.156 2.229 
-9.22 47.171 2.181 
-9.279 47.477 0.649 
-9.287 47.521 0.602 
-9.294 47.556 0.554 
-9.295 47.564 0.506 
-9.296 47.567 0.457 
-9.296 47.566 0.408 
-9.297 47.574 0.361 
-9.298 47.58 0.312 
-9.302 47.598 0.265 
-9.303 47.605 0.216 
-9.307 47.625 0.167 
-9.307 47.624 0.119 
-9.307 47.627 0.07 
-9.313 47.656 0.023 
-9.313 47.657 -0.026 
-9.314 47.662 -0.075 
-9.316 47.672 -0.123 
-9.322 47.701 -0.172 
-9.056 46.101 9.574 
-9.033 45.983 9.16 
-9.055 46.099 9.134 
-9.335 47.519 8.965 
-9.287 47.273 8.125 
-9.379 47.743 8.157 
-9.339 47.537 8.071 
-9.338 47.533 8.022 
-9.783 49.796 8.351 
-9.012 45.874 7.598 
-9.038 46.007 7.571 
-9.032 45.976 7.519 
-8.73 44.444 7.221 
-8.729 44.435 7.173 
-8.762 44.604 7.155 
-9.091 46.279 7.375 
-8.751 44.549 7.053 
-9.461 48.148 7.573 
-9.298 47.32 7.393 
-9.247 47.059 7.304 
-9.483 48.257 7.439 
-9.191 46.777 7.114 
-8.832 44.949 6.788 
-8.829 44.936 6.74 
-8.84 44.99 6.701 
-8.848 45.031 6.662 
-8.858 45.083 6.622 
-8.917 45.381 6.618 
-9.152 46.575 6.696 
-9.164 46.637 6.657 
-9.17 46.67 6.613 
-9.18 46.72 6.571 
-9.534 48.516 6.724 
-9.48 48.243 6.586 
-8.912 45.358 6.098 
-9.002 45.816 6.112 
-8.93 45.449 6.017 
-8.942 45.512 5.978 
-8.958 45.593 5.941 
-8.978 45.693 5.907 
-9.118 46.402 5.95 
-9.225 46.948 5.973 
-9.23 46.973 5.927 
-9.648 49.101 6.144 
-9.642 49.066 6.09 
-9.6 48.856 6.013 
-9.651 49.113 5.995 
-9.6 48.856 5.913 
-9.008 45.845 5.5 
-9.162 46.627 5.547 
-9.264 47.146 5.559 
-9.271 47.185 5.418 
-9.964 50.702 5.771 
-9.261 47.132 5.218 
-9.195 46.796 5.132 
-9.18 46.719 5.077 
-9.183 46.736 5.03 
-9.188 46.762 4.986 
-9.188 46.761 4.937 
-9.657 49.144 5.139 
-9.205 46.846 4.85 
-9.155 46.596 4.775 
-9.165 46.644 4.733 
-9.182 46.732 4.694 
-9.181 46.728 4.646 
-9.599 48.849 4.806 
-9.371 47.691 4.643 
-9.796 49.852 4.803 
-9.699 49.362 4.655 
-9.499 48.346 4.459 
-9.757 49.654 4.529 
-9.337 47.523 4.286 
-9.35 47.585 4.243 
-9.734 49.537 4.366 
-9.767 49.707 4.329 
-9.946 50.616 4.358 
-9.946 50.616 4.305 
-9.229 46.971 3.948 
-9.22 46.925 3.896 
-9.522 48.461 3.973 
-9.362 47.647 3.858 
-9.358 47.629 3.807 
-9.518 48.444 3.824 
-9.183 46.737 3.641 
-8.976 45.689 3.466 
-9.01 45.862 3.432 
-9.006 45.839 3.384 
-9.295 47.308 3.443 
-9.334 47.507 3.409 
-9.004 45.828 3.242 
-9.322 47.449 3.308 
-9.042 46.025 3.163 
-9.035 45.989 3.112 
-9.042 46.022 3.067 
-9.044 46.035 3.022 
-9.05 46.065 2.976 
-9.053 46.08 2.931 
-9.059 46.111 2.885 
-9.064 46.135 2.839 
-9.071 46.171 2.795 
-9.078 46.208 2.749 
-9.088 46.259 2.706 
-9.089 46.263 2.659 
-9.115 46.395 2.524 
-9.322 47.448 2.436 
-9.319 47.436 2.388 
-9.798 49.871 2.358 
-9.264 47.157 2.18 
-9.266 47.164 2.134 
-9.793 49.844 2.204 
-9.408 47.891 1.776 
-9.642 49.079 1.42 
-9.333 47.514 0.795 
-9.326 47.479 0.747 
-9.327 47.484 0.698 
-9.323 47.462 0.649 
-9.325 47.475 0.602 
-9.325 47.473 0.553 
-9.327 47.483 0.506 
-9.329 47.494 0.457 
-9.329 47.496 0.408 
-9.333 47.516 0.361 
-9.333 47.516 0.312 
