-0.935 18.032 2.289 
-0.933 17.993 2.266 
-0.936 18.039 2.253 
-0.938 18.076 2.239 
-0.938 18.074 2.221 
-0.939 18.096 2.205 
-0.939 18.087 2.186 
-0.94 18.098 2.169 
-1.018 19.604 2.309 
-1.02 19.629 2.293 
-0.892 17.186 1.799 
-0.891 17.174 1.78 
-0.893 17.211 1.767 
-0.893 17.213 1.75 
-0.892 17.194 1.73 
-0.896 17.279 1.722 
-0.896 17.269 1.703 
-0.893 17.213 1.645 
-0.892 17.193 1.626 
-0.942 18.142 1.698 
-0.942 18.138 1.679 
-0.942 18.139 1.661 
-0.967 18.621 1.686 
-0.969 18.653 1.671 
-0.932 17.961 1.392 
-0.947 18.24 1.176 
-0.947 18.239 1.157 
-0.947 18.243 1.139 
-0.951 18.322 0.961 
-0.984 18.958 0.539 
-0.984 18.954 0.52 
-0.994 19.145 0.43 
-0.998 19.221 0.392 
-0.908 17.522 0.025 
-0.91 17.557 0.008 
-0.911 17.57 -0.01 
-0.906 17.163 4.202 
-0.905 17.159 4.182 
-0.907 17.187 4.171 
-0.908 17.212 4.159 
-0.909 17.231 4.145 
-0.903 17.112 4.027 
-0.904 17.122 4.011 
-0.904 17.138 3.996 
-0.908 17.201 3.993 
-0.913 17.3 3.907 
-0.907 17.176 3.843 
-0.907 17.179 3.825 
-0.908 17.208 3.814 
-0.908 17.204 3.795 
-0.915 17.332 3.805 
-0.91 17.231 3.603 
-0.911 17.248 3.57 
-0.912 17.269 3.557 
-0.912 17.269 3.539 
-0.929 17.596 3.551 
-0.924 17.498 3.495 
-0.924 17.504 3.478 
-0.951 18.01 3.56 
-0.951 18.009 3.541 
-0.953 18.037 3.528 
-0.953 18.034 3.509 
-0.954 18.049 3.493 
-0.954 18.053 3.475 
-0.954 18.063 3.458 
-0.955 18.071 3.441 
-0.955 18.067 3.422 
-0.955 18.071 3.404 
-0.892 16.894 3.112 
-0.891 16.876 3.091 
-0.968 18.31 3.335 
-0.966 18.284 3.312 
-0.924 17.499 3.061 
-0.905 17.134 2.909 
-0.902 17.091 2.884 
-0.88 16.665 2.778 
-0.882 16.701 2.767 
-0.891 16.879 2.779 
-0.89 16.866 2.743 
-0.889 16.844 2.722 
-0.889 16.834 2.703 
-0.97 18.361 2.855 
-0.979 18.528 2.842 
-0.985 18.627 2.744 
-1.001 18.935 2.5 
-1.002 18.951 2.483 
-1.003 18.97 2.466 
-1.005 19.008 2.452 
-0.951 18.005 2.304 
-0.952 18.014 2.287 
-0.954 18.049 2.273 
-0.954 18.054 2.255 
-0.953 18.044 2.236 
-0.955 18.065 2.22 
-0.955 18.081 2.204 
-0.954 18.064 2.183 
-1.038 19.627 2.293 
-0.905 17.139 1.811 
-0.907 17.186 1.799 
-0.908 17.2 1.783 
-0.91 17.229 1.769 
-0.91 17.226 1.751 
-0.909 17.208 1.732 
-0.91 17.234 1.7 
-0.94 17.802 1.702 
-0.958 18.132 1.715 
-0.958 18.13 1.697 
-0.958 18.14 1.68 
-0.96 18.163 1.663 
-0.984 18.625 1.687 
-0.986 18.665 1.672 
-0.948 17.948 1.391 
-0.965 18.245 1.212 
-0.963 18.23 1.193 
-0.964 18.24 1.176 
-0.969 18.322 0.942 
-1.003 18.976 0.501 
-1.013 19.152 0.448 
-1.013 19.163 0.43 
-1.016 19.219 0.392 
-0.925 17.517 0.043 
-0.924 17.513 0.025 
-0.914 17.002 4.341 
-0.915 17.018 4.327 
-0.916 17.047 4.316 
-0.921 17.125 4.191 
-0.922 17.153 4.179 
-0.923 17.167 4.165 
-0.925 17.202 4.155 
-0.926 17.226 4.143 
-0.92 17.106 4.005 
-0.921 17.125 3.992 
-0.922 17.145 3.979 
-0.926 17.215 3.977 
-0.927 17.237 3.909 
-0.923 17.163 3.839 
-0.924 17.178 3.824 
-0.927 17.226 3.817 
-0.929 17.262 3.806 
-0.925 17.195 3.774 
-0.926 17.219 3.671 
-0.927 17.225 3.654 
-0.927 17.225 3.636 
-0.927 17.227 3.619 
-0.94 17.463 3.541 
-0.94 17.469 3.524 
-0.969 17.991 3.611 
-0.97 18.014 3.597 
-0.971 18.034 3.582 
-0.971 18.036 3.564 
-0.971 18.041 3.546 
-0.971 18.037 3.527 
-0.983 18.257 3.532 
-0.988 18.353 3.474 
-0.988 18.341 3.453 
-0.988 18.339 3.434 
-0.904 16.812 3.131 
-0.905 16.826 3.116 
-0.906 16.843 3.101 
-0.909 16.894 3.093 
-0.942 17.5 3.06 
-0.98 18.198 3.126 
-0.979 18.189 3.106 
-0.918 17.069 2.897 
-0.903 16.794 2.764 
-0.903 16.781 2.744 
-0.907 16.857 2.74 
-0.905 16.83 2.718 
-0.991 18.403 2.86 
-0.998 18.531 2.841 
-1.003 18.625 2.761 
-1.002 18.608 2.739 
-1.02 18.934 2.498 
-1.021 18.946 2.48 
-0.97 18.023 2.341 
-0.969 17.994 2.319 
-0.968 17.981 2.299 
-0.97 18.01 2.285 
-0.973 18.064 2.273 
-0.972 18.059 2.255 
-0.972 18.058 2.236 
-0.956 17.759 1.911 
-0.957 17.782 1.896 
-0.957 17.78 1.877 
-0.925 17.187 1.78 
-0.919 17.087 1.753 
-0.928 17.24 1.751 
-0.928 17.247 1.734 
-0.957 17.788 1.717 
-0.961 17.845 1.704 
-0.977 18.139 1.714 
-0.976 18.133 1.695 
-0.976 18.137 1.678 
-1.038 19.259 1.762 
-1.004 18.651 1.687 
-1.043 19.35 1.732 
-0.966 17.939 1.407 
-0.965 17.925 1.388 
-0.983 18.263 1.249 
-0.982 18.245 1.229 
-0.981 18.233 1.21 
-0.988 18.341 0.923 
-1.024 19.003 0.481 
-1.027 19.061 0.464 
-1.032 19.15 0.447 
-0.94 17.474 0.076 
-0.941 17.491 0.059 
-0.931 16.998 4.342 
-0.932 17.021 4.329 
-0.933 17.043 4.317 
-0.934 17.06 4.303 
-0.935 17.068 4.288 
-0.937 17.113 4.171 
-0.941 17.171 4.168 
-0.942 17.2 4.156 
-0.944 17.233 4.146 
-0.937 17.098 4.06 
-0.937 17.1 4.042 
-0.936 17.087 4.021 
-0.937 17.097 3.987 
-0.938 17.103 3.971 
-0.938 17.107 3.953 
-0.939 17.122 3.939 
-0.942 17.175 3.897 
-0.947 17.263 3.899 
-0.941 17.158 3.839 
-0.943 17.194 3.829 
-0.947 17.258 3.826 
-0.945 17.228 3.801 
-0.943 17.198 3.776 
-0.942 17.185 3.755 
-0.943 17.186 3.737 
-0.943 17.197 3.722 
-0.944 17.204 3.705 
-0.944 17.216 3.69 
-0.987 17.981 3.742 
-0.951 17.34 3.59 
-0.988 17.994 3.707 
-0.958 17.459 3.578 
-0.958 17.454 3.559 
-0.988 18.003 3.653 
-0.988 18.01 3.635 
-0.987 17.98 3.611 
-0.998 18.173 3.612 
-0.99 18.04 3.529 
-1.009 18.376 3.576 
-1.008 18.365 3.536 
-1.008 18.353 3.514 
-1.008 18.353 3.495 
-1.008 18.355 3.477 
-0.921 16.8 3.13 
-0.923 16.837 3.119 
-0.923 16.834 3.101 
-0.927 16.897 3.096 
-0.925 16.859 3.071 
-0.959 17.484 3.077 
-0.999 18.205 3.148 
-0.935 17.041 2.912 
-0.924 16.844 2.756 
-0.923 16.825 2.719 
-1.017 18.513 2.935 
-1.017 18.517 2.917 
-1.016 18.501 2.895 
-1.014 18.474 2.873 
-1.018 18.529 2.862 
-1.027 18.701 2.869 
-1.022 18.608 2.76 
-1.024 18.639 2.746 
-1.048 19.078 2.713 
-1.05 19.116 2.699 
-1.037 18.88 2.512 
-1.039 18.907 2.497 
-0.989 18.021 2.361 
-0.987 17.979 2.338 
-0.989 18.02 2.324 
-0.99 18.032 2.307 
-0.991 18.047 2.291 
-0.99 18.036 2.271 
-0.991 18.05 2.255 
-0.974 17.741 1.929 
-0.975 17.771 1.914 
-1.001 18.229 1.909 
-0.94 17.14 1.777 
-0.939 17.119 1.758 
-0.938 17.107 1.739 
-0.975 17.769 1.717 
-0.994 18.102 1.731 
-0.995 18.125 1.715 
-0.996 18.136 1.697 
-1.054 19.184 1.777 
-1.054 19.193 1.758 
-1.025 18.667 1.691 
-0.972 17.719 1.516 
-0.983 17.92 1.389 
-1.002 18.262 1.287 
-1.002 18.248 1.268 
-1.002 18.25 1.249 
-1.006 18.325 0.906 
-1.044 19.004 0.464 
-1.051 19.133 0.41 
-0.956 17.433 0.095 
-0.957 17.446 0.078 
-0.949 17.025 4.331 
-0.95 17.04 4.317 
-0.951 17.055 4.302 
-0.951 17.069 4.288 
-0.951 17.061 4.268 
-0.955 17.127 4.175 
-0.953 17.097 4.15 
-0.954 17.12 4.137 
-0.955 17.133 4.123 
-0.953 17.096 4.095 
-0.953 17.097 4.06 
-0.954 17.115 4.046 
-0.954 17.114 4.028 
-0.954 17.106 4.008 
-0.954 17.119 3.992 
-0.951 17.056 3.96 
-0.953 17.097 3.951 
-0.954 17.107 3.936 
-0.954 17.118 3.92 
-0.955 17.134 3.906 
-0.956 17.151 3.892 
-0.956 17.154 3.874 
-0.956 17.154 3.857 
-0.957 17.162 3.84 
-0.957 17.165 3.823 
-0.961 17.235 3.821 
-0.967 17.346 3.827 
-0.966 17.318 3.785 
-0.965 17.296 3.761 
-0.963 17.27 3.702 
-0.969 17.372 3.706 
-1.003 17.984 3.817 
-1.003 17.981 3.798 
-1.004 17.984 3.78 
-1.004 17.988 3.762 
-1.004 17.986 3.743 
-0.97 17.387 3.6 
-0.973 17.453 3.596 
-1.006 18.02 3.619 
-1.008 18.055 3.607 
-1.025 18.359 3.649 
-1.026 18.385 3.635 
-1.008 18.058 3.551 
-1.025 18.369 3.594 
-1.025 18.368 3.574 
-1.025 18.37 3.556 
-1.025 18.366 3.536 
-1.022 18.307 3.43 
-0.937 16.802 3.131 
-0.939 16.844 3.103 
-0.942 16.9 3.096 
-0.94 16.86 3.071 
-0.954 17.105 3.046 
-0.973 17.449 3.071 
-0.954 17.096 2.973 
-0.949 17.017 2.925 
-0.942 16.895 2.782 
-0.942 16.888 2.764 
-0.939 16.837 2.738 
-1.033 18.495 2.894 
-1.033 18.509 2.878 
-1.033 18.494 2.857 
-1.035 18.545 2.845 
-1.046 18.728 2.855 
-1.037 18.569 2.773 
-1.038 18.598 2.759 
-1.041 18.637 2.746 
-1.066 19.089 2.715 
-1.068 19.119 2.7 
-1.007 18.031 2.399 
-1.006 18.008 2.378 
-1.005 18 2.358 
-1.006 18.013 2.342 
-1.008 18.038 2.327 
-1.007 18.028 2.307 
-1.007 18.025 2.289 
-1.008 18.053 2.274 
-0.99 17.735 1.964 
-0.991 17.738 1.947 
-0.991 17.743 1.929 
-1.018 18.23 1.909 
-0.958 17.164 1.78 
-0.956 17.134 1.759 
-0.955 17.103 1.739 
-0.991 17.748 1.733 
-0.991 17.752 1.715 
-1.013 18.131 1.733 
-1.012 18.118 1.714 
-1.071 19.162 1.775 
-1.074 19.209 1.76 
-1.044 18.689 1.693 
-1.081 19.335 1.732 
-0.99 17.729 1.517 
-1.001 17.919 1.389 
-1.001 17.934 1.372 
-0.935 16.761 1.215 
-1.02 18.257 1.305 
-1.024 18.338 0.888 
-1.024 18.335 0.87 
-1.068 19.131 0.429 
-1.071 19.172 0.411 
-0.924 16.571 0.305 
-0.97 17.402 0.112 
-0.971 17.412 0.095 
-0.967 17.039 4.333 
-0.968 17.059 4.32 
-0.967 17.047 4.299 
-0.968 17.067 4.286 
-0.969 17.078 4.27 
-0.969 17.076 4.252 
-0.97 17.091 4.238 
-0.969 17.08 4.216 
-0.97 17.092 4.202 
-0.975 17.172 4.167 
-0.975 17.177 4.149 
-0.965 17.007 4.073 
-0.968 17.056 4.066 
-0.968 17.055 3.959 
-0.969 17.079 3.946 
-0.975 17.171 3.913 
-0.982 17.307 3.853 
-0.98 17.259 3.825 
-0.988 17.401 3.838 
-0.983 17.315 3.764 
-0.985 17.353 3.755 
-0.983 17.32 3.729 
-0.986 17.375 3.723 
-0.987 17.39 3.708 
-0.99 17.427 3.644 
-0.99 17.429 3.625 
-0.986 17.364 3.594 
-0.986 17.361 3.575 
-0.983 17.305 3.545 
-0.981 17.28 3.523 
-1.033 18.178 3.687 
-1.045 18.383 3.709 
-1.045 18.397 3.693 
-1.025 18.043 3.603 
-1.043 18.362 3.648 
-1.043 18.359 3.628 
-1.092 19.199 3.755 
-1.043 18.359 3.514 
-0.957 16.855 3.087 
-0.991 17.456 3.089 
-0.967 17.037 2.98 
-0.966 17.023 2.942 
-0.958 16.877 2.761 
-1.036 18.231 2.927 
-0.958 16.867 2.69 
-0.957 16.855 2.602 
-0.95 16.732 2.565 
-1.068 18.785 2.842 
-1.057 18.602 2.777 
-1.059 18.638 2.763 
-1.087 19.113 2.736 
-1.086 19.108 2.716 
-1.024 18.015 2.432 
-1.023 17.999 2.412 
-1.023 17.997 2.393 
-1.024 18.018 2.378 
-1.023 18.01 2.358 
-1.024 18.019 2.341 
-1.024 18.021 2.323 
-1.024 18.022 2.305 
-1.004 17.671 1.991 
-1.007 17.725 1.98 
-1.007 17.73 1.962 
-1.036 18.226 1.925 
-1.037 18.245 1.909 
-0.973 17.135 1.775 
-0.971 17.107 1.755 
-0.976 17.187 1.694 
-1.007 17.732 1.73 
-1.027 18.085 1.746 
-1.03 18.128 1.732 
-1.092 19.212 1.797 
-1.088 19.133 1.77 
-1.064 18.724 1.713 
-1.096 19.283 1.745 
-1.098 19.318 1.729 
-1.008 17.745 1.516 
-1.009 17.773 1.501 
-1.018 17.917 1.387 
-1.017 17.912 1.369 
-0.948 16.7 1.243 
-0.947 16.691 1.225 
-1.037 18.257 1.322 
-1.042 18.338 0.868 
-1.042 18.331 0.849 
-1.042 18.334 0.831 
-1.083 19.045 0.426 
-1.091 19.191 0.41 
-0.985 17.356 0.128 
-0.984 17.041 4.318 
-0.985 17.054 4.302 
-0.985 17.061 4.286 
-0.985 17.057 4.249 
-0.986 17.078 4.236 
-0.99 17.146 4.235 
-0.993 17.189 4.228 
-0.984 17.019 4.077 
-0.986 17.055 4.068 
-0.979 16.934 3.986 
-0.98 16.959 3.973 
-0.982 16.996 3.964 
-0.994 17.187 3.991 
-0.992 17.166 3.968 
-0.993 17.18 3.917 
-0.995 17.202 3.904 
-1 17.29 3.869 
-1.002 17.325 3.859 
-0.997 17.25 3.824 
-1.006 17.403 3.84 
-1.039 17.962 3.945 
-1.003 17.339 3.79 
-1.001 17.319 3.767 
-1.003 17.352 3.756 
-0.998 17.256 3.717 
-1.006 17.4 3.676 
-1.007 17.413 3.66 
-1.066 18.422 3.834 
-1.003 17.346 3.592 
-1.005 17.372 3.579 
-1.047 18.093 3.672 
-1.042 18.014 3.599 
-1.043 18.026 3.583 
-1.045 18.06 3.571 
-1.109 19.152 3.748 
-1.062 18.341 3.532 
-1.116 19.27 3.611 
-1.121 19.357 3.587 
-0.974 16.852 3.105 
-0.972 16.816 3.081 
-0.986 17.05 3.036 
-1.004 17.356 3.073 
-0.985 17.025 2.997 
-0.983 17.006 2.958 
-0.984 17.018 2.943 
-0.974 16.85 2.707 
-0.975 16.855 2.69 
-0.978 16.909 2.646 
-1.084 18.719 2.872 
-1.085 18.747 2.858 
-1.088 18.789 2.845 
-1.078 18.615 2.781 
-1.08 18.656 2.767 
-1.084 18.718 2.758 
-1.088 18.791 2.749 
-1.104 19.06 2.711 
-1.106 19.096 2.697 
-1.042 18.011 2.396 
-1.043 18.015 2.379 
-1.042 18.002 2.359 
-1.043 18.018 2.343 
-1.023 17.686 2.048 
-1.024 17.695 1.996 
-1.024 17.704 1.979 
-1.058 18.273 1.932 
-1.056 18.241 1.91 
-0.99 17.119 1.775 
-0.991 17.138 1.76 
-0.996 17.224 1.751 
-0.994 17.182 1.695 
-1.025 17.714 1.73 
-1.048 18.105 1.75 
-1.05 18.148 1.735 
-1.111 19.184 1.796 
-1.107 19.119 1.771 
-1.084 18.726 1.715 
-1.026 17.742 1.536 
-1.029 17.786 1.504 
-1.035 17.898 1.388 
-1.035 17.887 1.369 
-1.057 18.26 1.379 
-0.965 16.692 1.244 
-0.965 16.688 1.226 
-1.06 18.317 0.832 
-1.108 19.138 0.43 
-1.103 19.048 0.408 
-0.958 16.571 0.305 
-1.002 17.322 0.146 
-1.001 17.047 4.355 
-1.001 17.052 4.338 
-1.002 17.074 4.326 
-1.001 17.046 4.283 
-1.002 17.058 4.268 
-1.002 17.062 4.25 
-1.006 17.129 4.249 
-1.007 17.143 4.234 
-1.01 17.204 4.231 
-0.999 17.019 4.078 
-0.999 17.009 4.057 
-0.992 16.891 4.011 
-1.007 17.149 4.054 
-1.007 17.153 3.983 
-1.009 17.175 3.97 
-1.008 17.165 3.914 
-1.01 17.189 3.901 
-1.016 17.3 3.872 
-1.019 17.351 3.865 
-1.016 17.289 3.833 
-1.02 17.362 3.831 
-1.017 17.305 3.764 
-1.017 17.316 3.749 
-1.016 17.287 3.724 
-1.021 17.374 3.725 
-1.022 17.398 3.712 
-1.021 17.384 3.69 
-1.084 18.433 3.894 
-1.083 18.425 3.873 
-1.018 17.327 3.588 
-1.02 17.365 3.578 
-1.016 17.292 3.545 
-1.063 18.08 3.669 
-1.06 18.032 3.64 
-1.059 18.021 3.62 
-1.059 18.017 3.6 
-1.061 18.047 3.588 
-1.064 18.092 3.577 
-0.993 16.913 3.222 
-1.137 19.327 3.562 
-0.988 16.819 3.082 
-1.001 17.043 3.035 
-1.001 17.043 3.017 
-0.998 16.983 2.972 
-0.99 16.855 2.707 
-1.086 18.473 2.948 
-1.089 18.509 2.935 
-0.997 16.951 2.653 
-1.092 18.547 2.865 
-1.092 18.553 2.847 
-1.1 18.685 2.849 
-1.105 18.766 2.842 
-1.107 18.812 2.83 
-1.097 18.64 2.785 
-1.099 18.679 2.771 
-1.103 18.733 2.76 
-1.105 18.767 2.727 
-1.111 18.868 2.722 
-1.111 18.875 2.704 
-1.112 18.89 2.687 
-1.107 18.812 2.657 
-1.055 17.93 2.459 
-1.06 18.02 2.435 
-1.06 18.008 2.415 
-1.058 17.988 2.394 
-1.059 17.998 2.377 
-1.059 18.005 2.359 
-1.11 18.859 2.453 
-1.039 17.673 2.029 
-1.04 17.687 2.013 
-1.041 17.693 1.995 
-1.073 18.233 1.927 
-1.009 17.16 1.797 
-1.006 17.105 1.774 
-1.01 17.178 1.764 
-1.04 17.675 1.762 
-1.009 17.165 1.693 
-1.045 17.767 1.735 
-1.066 18.123 1.752 
-1.129 19.178 1.795 
-1.128 19.159 1.775 
-1.103 18.741 1.717 
-1.077 18.315 1.512 
-1.076 18.291 1.455 
-1.075 18.273 1.435 
-1.073 18.245 1.415 
-1.052 17.882 1.368 
-0.981 16.688 1.226 
-1.078 18.322 0.814 
-1.078 18.335 0.796 
-1.12 19.043 0.427 
-1.125 19.125 0.41 
-1.015 17.284 0.146 
-1.017 17.038 4.37 
-1.018 17.042 4.353 
-1.019 17.063 4.322 
-1.019 17.059 4.302 
-1.019 17.064 4.286 
-1.019 17.063 4.267 
-1.02 17.078 4.253 
-1.023 17.128 4.247 
-1.026 17.171 4.24 
-1.005 16.83 4.066 
-1.006 16.848 4.053 
-1.008 16.876 4.042 
-1.018 17.051 4.066 
-1.025 17.155 4.054 
-1.032 17.267 3.954 
-1.024 17.149 3.908 
-1.028 17.209 3.904 
-1.03 17.242 3.894 
-1.037 17.36 3.902 
-1.038 17.366 3.867 
-1.039 17.382 3.852 
-1.104 18.467 4.055 
-1.033 17.293 3.778 
-1.035 17.323 3.766 
-1.034 17.311 3.746 
-1.037 17.358 3.738 
-1.032 17.27 3.539 
-1.082 18.093 3.67 
-1.082 18.099 3.652 
-1.08 18.064 3.627 
-1.08 18.056 3.606 
-1.078 18.028 3.582 
-1.08 18.059 3.569 
-1.094 18.29 3.596 
-1.011 16.921 3.187 
-1.01 16.913 3.168 
-1.008 16.876 3.144 
-1.014 16.965 3.142 
-1.013 16.956 3.123 
-1.041 17.415 3.118 
-1.016 17.01 3.028 
-1.017 17.015 3.011 
-1.014 16.975 2.987 
-1.092 18.263 2.951 
-1.087 18.17 2.917 
-1.106 18.492 2.95 
-1.108 18.53 2.937 
-1.11 18.563 2.923 
-1.115 18.632 2.839 
-1.116 18.658 2.824 
-1.117 18.68 2.808 
-1.119 18.706 2.793 
-1.128 18.853 2.795 
-1.126 18.823 2.772 
-1.127 18.842 2.755 
-1.134 18.961 2.734 
-1.134 18.958 2.714 
-1.138 19.024 2.705 
-1.137 19.004 2.682 
-1.076 17.996 2.43 
-1.076 17.998 2.412 
-1.075 17.984 2.392 
-1.076 17.988 2.374 
-1.054 17.637 2.041 
-1.056 17.666 2.027 
-1.057 17.685 2.011 
-1.024 17.138 1.81 
-1.022 17.089 1.788 
-1.022 17.1 1.772 
-1.029 17.209 1.766 
-1.024 17.133 1.741 
-1.059 17.705 1.763 
-1.058 17.693 1.744 
-1.084 18.115 1.768 
-1.149 19.184 1.814 
-1.149 19.189 1.795 
-1.134 18.95 1.754 
-1.146 19.148 1.753 
-1.151 19.232 1.741 
-1.095 18.3 1.527 
-1.094 18.291 1.509 
-1.094 18.286 1.49 
-1.094 18.284 1.471 
-1.094 18.28 1.452 
-1.093 18.266 1.433 
-1.092 18.25 1.414 
-1.002 16.764 1.281 
-0.998 16.7 1.226 
-1.096 18.317 0.794 
-1.139 19.044 0.426 
-1.138 19.02 0.387 
-1.03 17.243 0.161 
-1.037 17.065 4.342 
-1.037 17.065 4.324 
-1.036 17.05 4.302 
-1.037 17.059 4.287 
-1.038 17.081 4.274 
-1.037 17.058 4.25 
-1.042 17.143 4.253 
-1.018 16.755 4.103 
-1.038 17.083 4.094 
-1.04 17.108 4.063 
-1.043 17.161 4.058 
-1.091 17.936 4.223 
-1.091 17.941 4.205 
-1.091 17.933 4.184 
-1.091 17.943 4.167 
-1.091 17.93 4.145 
-1.091 17.934 4.128 
-1.093 17.965 4.116 
-1.043 17.156 3.912 
-1.045 17.187 3.901 
-1.05 17.264 3.901 
-1.056 17.368 3.906 
-1.054 17.331 3.879 
-1.055 17.348 3.865 
-1.057 17.379 3.854 
-1.057 17.386 3.819 
-1.057 17.382 3.8 
-1.056 17.368 3.778 
-1.05 17.265 3.54 
-1.112 18.277 3.729 
-1.113 18.292 3.713 
-1.103 18.134 3.661 
-1.098 18.051 3.607 
-1.098 18.05 3.589 
-1.101 18.089 3.577 
-1.108 18.215 3.583 
-1.116 18.336 3.569 
-1.026 16.873 3.197 
-1.028 16.915 3.17 
-1.023 16.832 3.137 
-1.028 16.906 3.133 
-1.029 16.931 3.068 
-1.03 16.947 3.053 
-1.031 16.96 3.021 
-1.033 16.995 3.009 
-1.035 17.023 2.979 
-1.107 18.194 2.96 
-1.111 18.255 2.951 
-1.108 18.21 2.926 
-1.128 18.538 2.94 
-1.04 17.102 2.66 
-1.034 17.006 2.627 
-1.035 17.028 2.613 
-1.143 18.768 2.842 
-1.134 18.634 2.803 
-1.135 18.649 2.786 
-1.146 18.829 2.794 
-1.148 18.858 2.779 
-1.15 18.893 2.765 
-1.149 18.866 2.742 
-1.155 18.966 2.737 
-1.155 18.974 2.718 
-1.158 19.015 2.705 
-1.093 17.961 2.537 
-1.091 17.932 2.515 
-1.093 17.969 2.446 
-1.094 17.979 2.43 
-1.148 18.852 2.471 
-1.073 17.64 2.097 
-1.074 17.65 2.08 
-1.075 17.669 2.047 
-1.075 17.663 2.029 
-1.114 18.295 1.971 
-1.114 18.297 1.953 
-1.043 17.146 1.813 
-1.043 17.141 1.795 
-1.04 17.099 1.773 
-1.044 17.156 1.762 
-1.045 17.166 1.746 
-1.049 17.245 1.736 
-1.076 17.679 1.762 
-1.078 17.712 1.748 
-1.103 18.115 1.769 
-1.169 19.181 1.816 
-1.169 19.183 1.796 
-1.145 18.8 1.742 
-1.166 19.146 1.754 
-1.171 19.211 1.741 
-1.114 18.287 1.528 
-1.113 18.285 1.51 
-1.114 18.29 1.492 
-1.013 16.65 1.291 
-1.013 16.649 1.274 
-1.012 16.647 1.257 
-1.013 16.662 1.225 
-1.115 18.316 0.795 
-1.16 19.047 0.428 
-1.159 19.037 0.389 
-1.046 17.211 0.163 
-1.028 16.677 4.297 
-1.029 16.693 4.284 
-1.03 16.701 4.268 
-1.03 16.705 4.251 
-1.032 16.74 4.242 
-1.036 16.795 4.238 
-1.033 16.744 4.208 
-1.043 16.913 4.232 
-1.052 17.046 4.247 
-1.053 17.071 4.091 
-1.056 17.109 4.082 
-1.056 17.119 4.066 
-1.059 17.159 4.057 
-1.063 17.219 3.909 
-1.072 17.365 3.851 
-1.072 17.368 3.833 
-1.118 18.081 3.689 
-1.123 18.161 3.686 
-1.124 18.192 3.673 
-1.117 18.08 3.632 
-1.115 18.044 3.588 
-1.117 18.068 3.573 
-1.121 18.134 3.567 
-1.045 16.921 3.171 
-1.043 16.893 3.149 
-1.041 16.859 3.125 
-1.124 18.187 3.296 
-1.046 16.943 3.053 
-1.05 17.005 2.994 
-1.055 17.073 2.971 
-1.125 18.192 2.941 
-1.126 18.219 2.927 
-1.146 18.528 2.958 
-1.147 18.544 2.941 
-1.052 17.026 2.683 
-1.051 17.007 2.662 
-1.053 17.048 2.652 
-1.156 18.7 2.89 
-1.052 17.031 2.614 
-1.16 18.75 2.859 
-1.162 18.785 2.845 
-1.153 18.646 2.805 
-1.154 18.66 2.788 
-1.165 18.841 2.796 
-1.166 18.857 2.779 
-1.166 18.852 2.759 
-1.171 18.927 2.751 
-1.174 18.974 2.738 
-1.111 17.981 2.576 
-1.108 17.918 2.549 
-1.108 17.932 2.533 
-1.109 17.939 2.516 
-1.11 17.961 2.5 
-1.11 17.966 2.482 
-1.11 17.965 2.464 
-1.111 17.973 2.447 
-1.09 17.632 2.114 
-1.09 17.647 2.098 
-1.091 17.652 2.08 
-1.091 17.656 2.063 
-1.091 17.656 2.045 
-1.083 17.528 1.906 
-1.131 18.294 1.953 
-1.061 17.179 1.816 
-1.059 17.144 1.796 
-1.065 17.239 1.788 
-1.06 17.154 1.762 
-1.059 17.146 1.744 
-1.087 17.592 1.771 
-1.091 17.661 1.761 
-1.119 18.112 1.787 
-1.186 19.169 1.815 
-1.178 19.053 1.784 
-1.166 18.851 1.747 
-1.186 19.17 1.757 
-1.19 19.24 1.724 
-1.131 18.3 1.548 
-1.13 18.284 1.528 
-1.101 17.823 1.364 
-1.027 16.636 1.24 
-1.025 16.598 1.204 
-1.016 16.459 1.127 
-1.132 18.304 0.795 
-1.134 18.344 0.779 
-1.178 19.056 0.428 
-1.061 17.178 0.162 
-1.07 17.063 4.359 
-1.07 17.07 4.342 
-1.071 17.08 4.327 
-1.068 17.033 4.297 
-1.068 17.039 4.28 
-1.071 17.088 4.275 
-1.07 17.06 4.249 
-1.069 17.053 4.085 
-1.089 17.354 3.938 
-1.088 17.34 3.899 
-1.088 17.344 3.881 
-1.088 17.345 3.863 
-1.146 18.261 3.724 
-1.14 18.168 3.686 
-1.146 18.253 3.684 
-1.14 18.158 3.647 
-1.133 18.053 3.588 
-1.135 18.075 3.573 
-1.149 18.301 3.58 
-1.063 16.946 3.227 
-1.061 16.922 3.17 
-1.061 16.916 3.152 
-1.067 17.006 3.116 
-1.061 16.912 3.081 
-1.062 16.916 3.064 
-1.143 18.192 2.94 
-1.148 18.272 2.934 
-1.165 18.533 2.938 
-1.067 16.996 2.677 
-1.069 17.031 2.665 
-1.072 17.074 2.619 
-1.071 17.053 2.599 
-1.181 18.79 2.844 
-1.172 18.648 2.804 
-1.173 18.667 2.787 
-1.186 18.87 2.798 
-1.19 18.939 2.79 
-1.185 18.847 2.757 
-1.13 17.995 2.614 
-1.126 17.92 2.584 
-1.13 17.981 2.575 
-1.127 17.946 2.552 
-1.127 17.939 2.532 
-1.127 17.947 2.515 
-1.128 17.951 2.497 
-1.129 17.966 2.481 
-1.186 18.864 2.49 
-1.107 17.629 2.094 
-1.108 17.643 2.078 
-1.108 17.641 2.06 
-1.234 19.625 2.212 
-1.101 17.536 1.906 
-1.1 17.524 1.887 
-1.148 18.277 1.95 
-1.078 17.174 1.814 
-1.076 17.137 1.793 
-1.085 17.286 1.791 
-1.081 17.216 1.767 
-1.077 17.156 1.743 
-1.106 17.607 1.771 
-1.137 18.097 1.803 
-1.187 18.889 1.786 
-1.183 18.824 1.761 
-1.209 19.242 1.723 
-1.15 18.303 1.583 
-1.148 18.282 1.563 
-1.149 18.299 1.546 
-1.041 16.599 1.269 
-1.044 16.637 1.255 
-1.045 16.657 1.24 
-1.036 16.521 1.147 
-1.032 16.459 1.126 
-1.04 16.583 1.118 
-1.152 18.345 0.906 
-1.155 18.388 0.889 
-1.151 18.335 0.777 
-1.197 19.054 0.445 
-1.194 19.018 0.425 
-1.075 17.148 0.178 
-1.088 17.075 4.364 
-1.088 17.068 4.344 
-1.085 17.014 4.294 
-1.086 17.03 4.244 
-1.106 17.343 3.937 
-1.106 17.334 3.917 
-1.156 18.111 3.677 
-1.166 18.269 3.689 
-1.157 18.136 3.644 
-1.16 18.168 3.631 
-1.152 18.046 3.589 
-1.154 18.08 3.576 
-1.169 18.314 3.603 
-1.082 16.965 3.215 
-1.081 16.942 3.175 
-1.079 16.912 3.153 
-1.076 16.866 3.126 
-1.078 16.905 3.116 
-1.087 17.035 3 
-1.089 17.071 2.988 
-1.158 18.145 2.953 
-1.162 18.199 2.943 
-1.169 18.309 2.923 
-1.082 16.964 2.691 
-1.085 17.009 2.681 
-1.085 17.013 2.664 
-1.087 17.048 2.652 
-1.088 17.062 2.602 
-1.09 17.091 2.588 
-1.191 18.655 2.807 
-1.222 19.131 2.859 
-1.231 19.264 2.859 
-1.147 17.974 2.649 
-1.146 17.957 2.61 
-1.144 17.93 2.588 
-1.146 17.953 2.572 
-1.144 17.926 2.551 
-1.145 17.944 2.535 
-1.145 17.938 2.516 
-1.125 17.626 2.096 
-1.126 17.632 2.078 
-1.266 19.796 2.314 
-1.254 19.618 2.194 
-1.12 17.537 1.908 
-1.12 17.541 1.89 
-1.115 17.459 1.864 
-1.098 17.197 1.818 
-1.094 17.146 1.796 
-1.155 18.088 1.876 
-1.101 17.244 1.772 
-1.127 17.656 1.796 
-1.126 17.639 1.776 
-1.208 18.912 1.809 
-1.206 18.874 1.787 
-1.17 18.318 1.605 
-1.168 18.287 1.584 
-1.169 18.306 1.567 
-1.062 16.65 1.208 
-1.054 16.529 1.149 
-1.051 16.473 1.128 
-1.061 16.627 1.122 
-1.06 16.615 1.105 
-1.173 18.37 0.89 
-1.174 18.388 0.873 
-1.178 18.455 0.857 
-1.058 16.586 0.704 
-1.229 19.244 0.374 
-1.216 19.048 0.351 
-1.092 17.118 0.179 
-1.102 17.035 4.245 
-1.104 17.063 4.234 
-1.12 17.302 4.037 
-1.122 17.334 4.027 
-1.122 17.326 4.006 
-1.121 17.32 3.987 
-1.122 17.328 3.971 
-1.097 16.952 3.565 
-1.098 16.964 3.55 
-1.184 18.278 3.73 
-1.173 18.103 3.675 
-1.185 18.291 3.694 
-1.182 18.25 3.667 
-1.175 18.138 3.625 
-1.172 18.084 3.596 
-1.186 18.307 3.622 
-1.093 16.89 3.183 
-1.096 16.925 3.172 
-1.094 16.905 3.151 
-1.257 19.381 3.393 
-1.177 18.162 2.956 
-1.178 18.174 2.939 
-1.181 18.221 2.909 
-1.099 16.967 2.691 
-1.102 17.012 2.681 
-1.104 17.043 2.669 
-1.105 17.06 2.654 
-1.105 17.06 2.636 
-1.105 17.06 2.619 
-1.213 18.715 2.854 
-1.105 17.065 2.585 
-1.235 19.053 2.867 
-1.237 19.077 2.851 
-1.158 17.878 2.635 
-1.161 17.921 2.587 
-1.162 17.933 2.57 
-1.162 17.94 2.553 
-1.163 17.955 2.536 
-1.14 17.607 2.129 
-1.141 17.609 2.112 
-1.142 17.626 2.096 
-1.282 19.768 2.311 
-1.192 18.39 2.057 
-1.138 17.568 1.929 
-1.136 17.541 1.908 
-1.135 17.52 1.888 
-1.131 17.467 1.865 
-1.11 17.149 1.796 
-1.172 18.093 1.877 
-1.161 17.918 1.841 
-1.142 17.639 1.794 
-1.142 17.636 1.776 
-1.226 18.918 1.848 
-1.225 18.895 1.827 
-1.185 18.288 1.584 
-1.154 17.806 1.363 
-1.155 17.815 1.345 
-1.068 16.489 1.196 
-1.072 16.559 1.151 
-1.067 16.481 1.129 
-1.192 18.387 0.873 
-1.191 18.382 0.854 
-1.069 16.519 0.701 
-1.188 18.33 0.76 
-1.245 19.204 0.373 
-1.241 19.146 0.353 
-1.247 19.244 0.336 
-1.106 17.091 0.179 
-1.119 17.046 4.246 
-1.137 17.306 4.074 
-1.138 17.322 4.059 
-1.138 17.316 4.039 
-1.141 17.364 4.032 
-1.13 17.194 3.758 
-1.113 16.928 3.576 
-1.113 16.934 3.559 
-1.115 16.962 3.548 
-1.203 18.277 3.728 
-1.191 18.106 3.674 
-1.204 18.303 3.695 
-1.192 18.122 3.621 
-1.273 19.34 3.724 
-1.11 16.889 3.217 
-1.11 16.877 3.197 
-1.11 16.887 3.182 
-1.113 16.925 3.171 
-1.116 16.98 3.164 
-1.275 19.357 3.387 
-1.277 19.396 3.374 
-1.26 19.135 3.074 
-1.2 18.232 2.91 
-1.117 16.981 2.692 
-1.119 17.023 2.682 
-1.121 17.05 2.668 
-1.123 17.08 2.656 
-1.12 17.038 2.632 
-1.119 17.02 2.611 
-1.237 18.793 2.865 
-1.125 17.101 2.589 
-1.122 17.065 2.566 
-1.177 17.886 2.653 
-1.172 17.808 2.605 
-1.178 17.903 2.601 
-1.179 17.926 2.586 
-1.18 17.937 2.569 
-1.241 18.858 2.509 
-1.158 17.602 2.145 
-1.159 17.612 2.128 
-1.159 17.622 2.112 
-1.3 19.747 2.287 
-1.3 19.742 2.266 
-1.195 18.166 2.048 
-1.195 18.16 2.029 
-1.157 17.592 1.948 
-1.154 17.546 1.925 
-1.154 17.539 1.907 
-1.154 17.538 1.889 
-1.191 18.098 1.931 
-1.14 17.341 1.832 
-1.19 18.09 1.894 
-1.185 18.015 1.867 
-1.16 17.629 1.81 
-1.247 18.939 1.887 
-1.246 18.936 1.867 
-1.203 18.28 1.582 
-1.172 17.825 1.363 
-1.171 17.811 1.344 
-1.082 16.47 1.193 
-1.085 16.515 1.147 
-1.087 16.543 1.132 
-1.087 16.546 1.116 
-1.089 16.573 1.051 
-1.21 18.398 0.908 
-1.209 18.385 0.889 
-1.21 18.389 0.871 
-1.207 18.357 0.851 
-1.214 18.451 0.837 
-1.086 16.535 0.734 
-1.087 16.552 0.717 
-1.21 18.394 0.742 
-1.206 18.34 0.722 
-1.253 19.042 0.349 
-1.25 18.99 0.33 
-1.122 17.075 0.177 
-1.157 17.337 4.064 
-1.16 17.384 4.057 
-1.159 17.367 4.035 
-1.159 17.364 4.016 
-1.149 17.21 3.745 
-1.129 16.913 3.557 
-1.131 16.95 3.547 
-1.221 18.284 3.75 
-1.136 17.017 3.473 
-1.222 18.291 3.714 
-1.218 18.23 3.644 
-1.126 16.856 3.282 
-1.126 16.86 3.266 
-1.29 19.29 3.696 
-1.286 19.22 3.663 
-1.216 18.194 3.449 
-1.124 16.835 3.173 
-1.131 16.924 3.173 
-1.133 16.966 3.163 
-1.296 19.376 3.393 
-1.297 19.386 3.374 
-1.282 19.162 3.06 
-1.141 17.079 2.709 
-1.14 17.056 2.689 
-1.14 17.064 2.672 
-1.14 17.066 2.655 
-1.137 17.025 2.631 
-1.201 17.962 2.758 
-1.193 17.845 2.722 
-1.196 17.885 2.709 
-1.143 17.104 2.574 
-1.196 17.894 2.638 
-1.197 17.912 2.622 
-1.197 17.911 2.604 
-1.199 17.943 2.59 
-1.197 17.91 2.567 
-1.262 18.872 2.513 
-1.177 17.61 2.165 
-1.176 17.59 2.146 
-1.321 19.744 2.288 
-1.221 18.265 2.099 
-1.212 18.123 2.064 
-1.212 18.127 2.045 
-1.214 18.155 2.031 
-1.222 18.281 2.026 
-1.175 17.582 1.931 
-1.174 17.564 1.911 
-1.209 18.09 1.95 
-1.208 18.077 1.93 
-1.21 18.096 1.914 
-1.203 17.996 1.886 
-1.178 17.622 1.828 
-1.267 18.944 1.908 
-1.17 17.509 1.623 
-1.222 18.283 1.584 
-1.19 17.804 1.363 
-1.19 17.805 1.345 
-1.113 16.67 1.142 
-1.105 16.546 1.001 
-1.223 18.298 0.887 
-1.225 18.335 0.87 
-1.227 18.365 0.853 
-1.229 18.389 0.836 
-1.102 16.509 0.734 
-1.104 16.535 0.718 
-1.106 16.562 0.703 
-1.231 18.414 0.745 
-1.229 18.398 0.726 
-1.224 18.316 0.704 
-1.239 18.539 0.546 
-1.272 19.027 0.351 
-1.27 19.004 0.332 
-1.267 18.96 0.312 
-1.136 17.025 0.178 
-1.178 17.399 4.061 
-1.139 16.817 3.748 
-1.14 16.831 3.734 
-1.168 17.239 3.734 
-1.145 16.892 3.553 
-1.147 16.922 3.542 
-1.139 16.816 3.362 
-1.141 16.845 3.35 
-1.307 19.261 3.711 
-1.309 19.285 3.696 
-1.301 19.171 3.654 
-1.233 18.188 3.448 
-1.138 16.8 3.167 
-1.148 16.946 3.177 
-1.15 16.976 3.165 
-1.207 17.806 3.283 
-1.31 19.304 3.401 
-1.313 19.346 3.388 
-1.315 19.383 3.374 
-1.152 16.999 2.715 
-1.156 17.056 2.689 
-1.156 17.06 2.672 
-1.156 17.056 2.654 
-1.154 17.028 2.632 
-1.213 17.894 2.747 
-1.212 17.869 2.726 
-1.212 17.872 2.708 
-1.16 17.108 2.575 
-1.164 17.173 2.567 
-1.211 17.857 2.65 
-1.213 17.888 2.637 
-1.279 18.854 2.684 
-1.28 18.866 2.647 
-1.283 18.903 2.633 
-1.191 17.571 2.197 
-1.192 17.579 2.18 
-1.193 17.59 2.163 
-1.237 18.239 2.151 
-1.232 18.16 2.123 
-1.23 18.143 2.103 
-1.229 18.116 2.082 
-1.229 18.122 2.064 
-1.231 18.153 2.049 
-1.246 18.372 2.055 
-1.245 18.354 2.034 
-1.227 18.092 1.987 
-1.227 18.089 1.968 
-1.227 18.091 1.95 
-1.194 17.619 1.882 
-1.195 17.62 1.864 
-1.193 17.605 1.845 
-1.239 18.277 1.583 
-1.24 18.288 1.565 
-1.206 17.791 1.362 
-1.119 16.518 1.165 
-1.127 16.644 1.157 
-1.244 18.348 0.926 
-1.24 18.295 0.905 
-1.241 18.31 0.887 
-1.242 18.316 0.87 
-1.247 18.39 0.854 
-1.247 18.395 0.836 
-1.12 16.543 0.735 
-1.12 16.537 0.718 
-1.245 18.366 0.725 
-1.246 18.377 0.706 
-1.249 18.419 0.635 
-1.256 18.523 0.546 
-1.257 18.532 0.527 
-1.258 18.54 0.509 
-1.295 19.084 0.39 
-1.293 19.061 0.371 
-1.29 19.022 0.351 
-1.287 18.979 0.331 
-1.286 18.963 0.312 
-1.152 16.997 0.178 
-1.192 17.35 4.011 
-1.197 17.419 3.918 
-1.197 17.415 3.898 
-1.155 16.806 3.727 
-1.184 17.232 3.767 
-1.185 17.24 3.733 
-1.163 16.925 3.541 
-1.157 16.83 3.398 
-1.159 16.867 3.388 
-1.158 16.857 3.368 
-1.165 16.947 3.264 
-1.302 18.919 3.624 
-1.303 18.934 3.608 
-1.158 16.846 3.175 
-1.165 16.956 3.178 
-1.167 16.973 3.163 
-1.225 17.816 3.283 
-1.222 17.777 3.184 
-1.332 19.351 3.387 
-1.169 17.006 2.697 
-1.172 17.053 2.669 
-1.172 17.053 2.652 
-1.232 17.914 2.768 
-1.232 17.913 2.749 
-1.231 17.902 2.729 
-1.23 17.886 2.708 
-1.23 17.888 2.691 
-1.177 17.118 2.557 
-1.203 17.502 2.579 
-1.326 19.264 2.76 
-1.299 18.877 2.685 
-1.298 18.867 2.664 
-1.206 17.54 2.459 
-1.214 17.655 2.457 
-1.208 17.575 2.214 
-1.209 17.581 2.197 
-1.242 18.053 2.146 
-1.247 18.131 2.136 
-1.245 18.098 2.114 
-1.245 18.105 2.097 
-1.246 18.111 2.079 
-1.262 18.344 2.087 
-1.262 18.349 2.069 
-1.245 18.096 2.023 
-1.244 18.084 2.003 
-1.243 18.08 1.984 
-1.244 18.089 1.967 
-1.245 18.095 1.949 
-1.21 17.598 1.878 
-1.211 17.607 1.861 
-1.207 17.549 1.642 
-1.206 17.537 1.624 
-1.203 17.495 1.602 
-1.258 18.286 1.582 
-1.258 18.282 1.563 
-1.224 17.786 1.36 
-1.136 16.533 0.915 
-1.135 16.519 0.866 
-1.262 18.342 0.924 
-1.26 18.312 0.904 
-1.259 18.298 0.885 
-1.262 18.345 0.869 
-1.265 18.389 0.853 
-1.14 16.59 0.752 
-1.136 16.526 0.733 
-1.135 16.515 0.716 
-1.272 18.497 0.599 
-1.273 18.506 0.543 
-1.275 18.531 0.525 
-1.277 18.564 0.508 
-1.309 19.034 0.349 
-1.323 19.23 0.334 
-1.328 19.299 0.316 
-1.165 16.962 0.193 
-1.21 17.335 4.01 
-1.216 17.422 3.92 
-1.217 17.443 3.907 
-1.183 16.956 3.78 
-1.178 16.884 3.728 
-1.253 17.953 3.777 
-1.174 16.834 3.488 
-1.172 16.795 3.393 
-1.18 16.915 3.4 
-1.176 16.859 3.301 
-1.175 16.836 3.262 
-1.171 16.777 3.233 
-1.321 18.903 3.623 
-1.322 18.931 3.609 
-1.244 17.811 3.359 
-1.242 17.793 3.336 
-1.244 17.812 3.322 
-1.244 17.824 3.306 
-1.247 17.863 3.257 
-1.245 17.827 3.233 
-1.244 17.813 3.211 
-1.242 17.796 3.19 
-1.24 17.764 3.147 
-1.353 19.362 3.391 
-1.352 19.342 3.348 
-1.25 17.894 2.858 
-1.185 16.974 2.693 
-1.193 17.087 2.694 
-1.191 17.063 2.673 
-1.247 17.863 2.762 
-1.248 17.874 2.745 
-1.248 17.875 2.727 
-1.248 17.878 2.709 
-1.248 17.875 2.691 
-1.196 17.142 2.562 
-1.223 17.513 2.564 
-1.227 17.578 2.52 
-1.224 17.533 2.496 
-1.223 17.516 2.475 
-1.225 17.548 2.462 
-1.224 17.532 2.442 
-1.229 17.601 2.433 
-1.228 17.587 2.414 
-1.319 18.877 2.553 
-1.226 17.557 2.356 
-1.225 17.548 2.247 
-1.226 17.563 2.232 
-1.226 17.555 2.213 
-1.261 18.064 2.13 
-1.267 18.142 2.121 
-1.281 18.335 2.125 
-1.286 18.409 2.116 
-1.263 18.087 2.06 
-1.263 18.091 2.042 
-1.262 18.078 2.022 
-1.263 18.084 2.005 
-1.226 17.562 1.929 
-1.226 17.562 1.911 
-1.228 17.587 1.896 
-1.228 17.585 1.878 
-1.225 17.537 1.626 
-1.224 17.529 1.607 
-1.278 18.283 1.565 
-1.242 17.785 1.362 
-1.15 16.484 1.179 
-1.289 18.445 0.931 
-1.292 18.493 0.915 
-1.284 18.379 0.891 
-1.283 18.372 0.872 
-1.285 18.393 0.855 
-1.157 16.584 0.754 
-1.159 16.613 0.739 
-1.154 16.541 0.719 
-1.291 18.487 0.618 
-1.29 18.474 0.6 
-1.292 18.499 0.582 
-1.292 18.497 0.563 
-1.294 18.521 0.546 
-1.294 18.533 0.527 
-1.295 18.545 0.509 
-1.328 19.011 0.351 
-1.344 19.241 0.316 
-1.183 16.951 0.194 
-1.224 17.305 4.003 
-1.231 17.394 3.915 
-1.236 17.473 3.914 
-1.195 16.891 3.765 
-1.197 16.926 3.756 
-1.19 16.831 3.717 
-1.214 17.166 3.755 
-1.192 16.849 3.544 
-1.195 16.897 3.537 
-1.188 16.792 3.392 
-1.192 16.855 3.388 
-1.192 16.847 3.299 
-1.192 16.854 3.282 
-1.198 16.94 3.282 
-1.182 16.71 3.202 
-1.34 18.926 3.608 
-1.183 16.722 3.17 
-1.319 18.63 3.513 
-1.261 17.816 3.341 
-1.263 17.841 3.328 
-1.268 17.911 3.322 
-1.261 17.821 3.268 
-1.26 17.795 3.208 
-1.262 17.831 3.196 
-1.367 19.3 3.401 
-1.369 19.326 3.385 
-1.369 19.329 3.366 
-1.37 19.333 3.347 
-1.371 19.348 3.329 
-1.202 16.991 2.696 
-1.207 17.054 2.689 
-1.207 17.053 2.671 
-1.265 17.863 2.78 
-1.265 17.866 2.762 
-1.266 17.876 2.745 
-1.268 17.905 2.732 
-1.349 19.032 2.884 
-1.354 19.101 2.875 
-1.237 17.466 2.611 
-1.235 17.439 2.589 
-1.239 17.496 2.58 
-1.241 17.522 2.548 
-1.242 17.537 2.514 
-1.239 17.499 2.491 
-1.239 17.492 2.472 
-1.24 17.515 2.458 
-1.24 17.507 2.438 
-1.247 17.609 2.435 
-1.25 17.644 2.422 
-1.244 17.559 2.392 
-1.239 17.494 2.366 
-1.239 17.492 2.347 
-1.242 17.537 2.282 
-1.243 17.546 2.265 
-1.244 17.559 2.249 
-1.3 18.353 2.165 
-1.303 18.389 2.151 
-1.281 18.089 2.097 
-1.281 18.081 2.078 
-1.281 18.081 2.059 
-1.282 18.095 2.042 
-1.241 17.52 1.942 
-1.245 17.574 1.931 
-1.245 17.584 1.914 
-1.244 17.569 1.894 
-1.245 17.587 1.879 
-1.242 17.546 1.644 
-1.242 17.533 1.625 
-1.241 17.525 1.589 
-1.294 18.27 1.564 
-1.26 17.796 1.363 
-1.176 16.625 1.139 
-1.169 16.518 1.016 
-1.168 16.518 0.833 
-1.169 16.523 0.818 
-1.308 18.468 0.895 
-1.301 18.365 0.872 
-1.305 18.429 0.856 
-1.174 16.601 0.755 
-1.173 16.583 0.737 
-1.171 16.552 0.719 
-1.308 18.478 0.6 
-1.309 18.491 0.582 
-1.31 18.495 0.563 
-1.309 18.492 0.545 
-1.312 18.526 0.527 
-1.314 18.559 0.51 
-1.175 16.619 0.406 
-1.367 19.296 0.317 
-1.198 16.924 0.194 
-1.251 17.436 3.996 
-1.252 17.452 3.981 
-1.253 17.465 3.966 
-1.25 17.422 3.92 
-1.21 16.869 3.742 
-1.213 16.905 3.732 
-1.225 17.077 3.752 
-1.218 16.976 3.712 
-1.208 16.843 3.542 
-1.208 16.833 3.522 
-1.205 16.795 3.287 
-1.209 16.848 3.28 
-1.213 16.912 3.275 
-1.198 16.7 3.182 
-1.33 18.522 3.51 
-1.28 17.823 3.36 
-1.28 17.83 3.342 
-1.318 18.36 3.423 
-1.35 18.79 3.484 
-1.28 17.83 3.287 
-1.28 17.833 3.269 
-1.277 17.779 3.185 
-1.276 17.778 3.167 
-1.283 17.857 3.145 
-1.282 17.852 3.125 
-1.391 19.347 3.367 
-1.39 19.34 3.346 
-1.39 19.334 3.325 
-1.22 16.986 2.694 
-1.283 17.856 2.814 
-1.221 17.003 2.662 
-1.224 17.041 2.651 
-1.375 19.129 2.956 
-1.375 19.122 2.935 
-1.372 19.09 2.872 
-1.233 17.164 2.547 
-1.256 17.489 2.577 
-1.258 17.51 2.527 
-1.254 17.453 2.5 
-1.257 17.501 2.49 
-1.256 17.481 2.469 
-1.261 17.549 2.461 
-1.255 17.479 2.433 
-1.262 17.572 2.428 
-1.26 17.544 2.407 
-1.257 17.505 2.383 
-1.257 17.5 2.365 
-1.254 17.452 2.341 
-1.259 17.529 2.333 
-1.259 17.528 2.297 
-1.26 17.542 2.281 
-1.301 18.112 2.172 
-1.299 18.087 2.15 
-1.299 18.085 2.131 
-1.3 18.09 2.114 
-1.3 18.088 2.095 
-1.299 18.081 2.076 
-1.26 17.543 1.961 
-1.262 17.574 1.947 
-1.262 17.571 1.929 
-1.269 17.663 1.921 
-1.41 19.613 2.113 
-1.41 19.608 2.093 
-1.26 17.539 1.642 
-1.257 17.501 1.621 
-1.259 17.534 1.606 
-1.259 17.536 1.588 
-1.313 18.274 1.563 
-1.277 17.782 1.378 
-1.279 17.802 1.362 
-1.195 16.648 1.139 
-1.323 18.414 0.928 
-1.186 16.521 0.816 
-1.186 16.515 0.799 
-1.322 18.39 0.872 
-1.326 18.446 0.856 
-1.19 16.569 0.752 
-1.19 16.572 0.735 
-1.33 18.505 0.543 
-1.33 18.507 0.525 
-1.332 18.538 0.507 
-1.379 19.184 0.352 
-1.387 19.297 0.316 
-1.213 16.894 0.192 
-1.271 17.444 3.981 
-1.271 17.451 3.964 
-1.232 16.922 3.809 
-1.228 16.866 3.725 
-1.249 17.14 3.768 
-1.228 16.859 3.547 
-1.209 16.603 3.32 
-1.209 16.603 3.268 
-1.222 16.778 3.286 
-1.222 16.776 3.268 
-1.218 16.728 3.241 
-1.23 16.879 3.253 
-1.218 16.724 3.188 
-1.35 18.512 3.51 
-1.298 17.81 3.359 
-1.301 17.843 3.347 
-1.343 18.421 3.436 
-1.369 18.768 3.481 
-1.375 18.85 3.477 
-1.299 17.822 3.269 
-1.297 17.794 3.209 
-1.294 17.759 3.166 
-1.411 19.338 3.388 
-1.301 17.85 3.108 
-1.299 17.824 3.086 
-1.301 17.849 2.888 
-1.301 17.853 2.871 
-1.3 17.837 2.85 
-1.301 17.847 2.833 
-1.237 16.983 2.661 
-1.348 18.487 2.859 
-1.395 19.13 2.938 
-1.395 19.13 2.919 
-1.255 17.216 2.539 
-1.274 17.478 2.559 
-1.276 17.509 2.528 
-1.276 17.508 2.51 
-1.274 17.476 2.488 
-1.271 17.446 2.466 
-1.272 17.457 2.45 
-1.273 17.464 2.433 
-1.273 17.467 2.415 
-1.281 17.577 2.413 
-1.282 17.59 2.396 
-1.275 17.501 2.367 
-1.276 17.508 2.35 
-1.271 17.435 2.322 
-1.276 17.513 2.315 
-1.278 17.53 2.299 
-1.318 18.074 2.206 
-1.319 18.091 2.189 
-1.318 18.085 2.17 
-1.318 18.081 2.151 
-1.319 18.09 2.134 
-1.318 18.074 2.114 
-1.28 17.566 2.019 
-1.277 17.52 1.996 
-1.28 17.562 1.982 
-1.28 17.56 1.965 
-1.28 17.561 1.947 
-1.405 19.267 2.097 
-1.274 17.472 1.62 
-1.276 17.505 1.605 
-1.278 17.526 1.589 
-1.288 17.66 1.512 
-1.298 17.806 1.382 
-1.34 18.37 0.909 
-1.205 16.542 0.802 
-1.203 16.514 0.751 
-1.204 16.525 0.735 
-1.355 18.587 0.511 
-1.357 18.615 0.492 
-1.4 19.201 0.354 
-1.392 19.093 0.333 
-1.23 16.881 0.193 
-1.287 17.436 3.979 
-1.288 17.452 3.965 
-1.289 17.459 3.948 
-1.248 16.911 3.788 
-1.248 16.907 3.77 
-1.244 16.855 3.723 
-1.243 16.844 3.562 
-1.321 17.893 3.672 
-1.243 16.848 3.387 
-1.224 16.59 3.266 
-1.231 16.677 3.249 
-1.229 16.652 3.227 
-1.227 16.632 3.206 
-1.367 18.499 3.508 
-1.37 18.547 3.498 
-1.37 18.539 3.477 
-1.36 18.412 3.435 
-1.389 18.799 3.487 
-1.394 18.858 3.479 
-1.396 18.891 3.466 
-1.312 17.766 3.149 
-1.318 17.844 3.107 
-1.319 17.856 3.091 
-1.318 17.84 3.07 
-1.317 17.827 2.94 
-1.317 17.833 2.922 
-1.318 17.842 2.906 
-1.318 17.847 2.888 
-1.318 17.847 2.87 
-1.356 18.353 2.913 
-1.359 18.393 2.901 
-1.258 17.036 2.669 
-1.26 17.07 2.657 
-1.365 18.475 2.857 
-1.414 19.135 2.92 
-1.294 17.522 2.62 
-1.293 17.505 2.599 
-1.271 17.218 2.539 
-1.285 17.401 2.495 
-1.289 17.45 2.485 
-1.292 17.493 2.473 
-1.292 17.5 2.456 
-1.296 17.544 2.444 
-1.294 17.517 2.422 
-1.29 17.47 2.398 
-1.288 17.436 2.376 
-1.292 17.492 2.366 
-1.292 17.502 2.349 
-1.295 17.537 2.336 
-1.286 17.418 2.303 
-1.34 18.144 2.362 
-1.338 18.118 2.34 
-1.337 18.093 2.281 
-1.338 18.107 2.265 
-1.335 18.079 2.243 
-1.336 18.082 2.225 
-1.335 18.077 2.206 
-1.336 18.086 2.189 
-1.336 18.093 2.171 
-1.294 17.524 2.067 
-1.294 17.526 2.032 
-1.293 17.517 2.013 
-1.296 17.545 1.999 
-1.296 17.547 1.981 
-1.297 17.562 1.965 
-1.423 19.257 2.135 
-1.421 19.229 2.113 
-1.295 17.532 1.626 
-1.292 17.503 1.605 
-1.298 17.579 1.594 
-1.294 17.528 1.572 
-1.298 17.574 1.558 
-1.299 17.591 1.542 
-1.349 18.268 1.564 
-1.313 17.776 1.415 
-1.313 17.785 1.398 
-1.314 17.79 1.381 
-1.228 16.635 0.873 
-1.226 16.613 0.855 
-1.222 16.554 0.835 
-1.363 18.45 0.913 
-1.362 18.436 0.894 
-1.361 18.419 0.875 
-1.361 18.423 0.856 
-1.219 16.522 0.685 
-1.219 16.512 0.668 
-1.374 18.596 0.511 
-1.376 18.62 0.493 
-1.414 19.135 0.334 
-1.418 19.185 0.316 
-1.243 16.839 0.21 
-1.304 17.431 3.995 
-1.303 17.427 3.976 
-1.307 17.479 3.97 
-1.264 16.901 3.767 
-1.259 16.846 3.719 
-1.344 17.966 3.779 
-1.337 17.869 3.684 
-1.339 17.892 3.67 
-1.257 16.81 3.378 
-1.246 16.665 3.262 
-1.241 16.596 3.231 
-1.242 16.616 3.219 
-1.245 16.657 3.209 
-1.246 16.667 3.193 
-1.415 18.905 3.584 
-1.415 18.907 3.565 
-1.38 18.436 3.457 
-1.385 18.509 3.452 
-1.41 18.834 3.492 
-1.413 18.872 3.48 
-1.414 18.892 3.464 
-1.414 18.891 3.444 
-1.335 17.828 3.122 
-1.334 17.821 3.084 
-1.335 17.834 3.05 
-1.334 17.822 2.974 
-1.335 17.836 2.958 
-1.335 17.832 2.939 
-1.439 19.206 3.087 
-1.437 19.182 3.063 
-1.373 18.338 2.909 
-1.377 18.384 2.898 
-1.276 17.05 2.67 
-1.278 17.078 2.657 
-1.278 17.082 2.64 
-1.31 17.5 2.597 
-1.287 17.199 2.517 
-1.307 17.46 2.538 
-1.31 17.505 2.508 
-1.309 17.49 2.489 
-1.308 17.468 2.468 
-1.3 17.37 2.436 
-1.299 17.353 2.416 
-1.302 17.395 2.404 
-1.304 17.422 2.39 
-1.31 17.497 2.383 
-1.317 17.591 2.36 
-1.313 17.541 2.335 
-1.305 17.432 2.303 
-1.353 18.065 2.368 
-1.352 18.059 2.349 
-1.355 18.09 2.335 
-1.353 18.073 2.296 
-1.354 18.079 2.278 
-1.354 18.083 2.261 
-1.354 18.09 2.243 
-1.354 18.08 2.223 
-1.358 18.136 2.212 
-1.313 17.542 2.015 
-1.313 17.536 1.996 
-1.466 19.567 2.168 
-1.311 17.521 1.623 
-1.311 17.516 1.605 
-1.315 17.576 1.592 
-1.31 17.502 1.568 
-1.367 18.253 1.562 
-1.368 18.271 1.545 
-1.331 17.781 1.378 
-1.238 16.551 0.868 
-1.241 16.6 0.853 
-1.241 16.591 0.836 
-1.381 18.453 0.893 
-1.235 16.523 0.634 
-1.235 16.523 0.618 
-1.392 18.598 0.509 
-1.393 18.608 0.491 
-1.432 19.136 0.313 
-1.257 16.817 0.208 
-1.322 17.437 3.999 
-1.323 17.444 3.982 
-1.324 17.461 3.968 
-1.281 16.899 3.768 
-1.277 16.846 3.721 
-1.363 17.968 3.781 
-1.356 17.871 3.687 
-1.358 17.899 3.674 
-1.274 16.808 3.38 
-1.257 16.579 3.299 
-1.26 16.619 3.29 
-1.256 16.561 3.261 
-1.26 16.619 3.255 
-1.26 16.614 3.237 
-1.262 16.64 3.225 
-1.265 16.681 3.215 
-1.397 18.408 3.511 
-1.395 18.383 3.487 
-1.401 18.454 3.481 
-1.4 18.443 3.46 
-1.35 17.798 3.302 
-1.351 17.805 3.285 
-1.349 17.785 3.263 
-1.35 17.789 3.245 
-1.352 17.822 3.086 
-1.35 17.798 3.063 
-1.354 17.841 3.053 
-1.352 17.824 3.031 
-1.282 16.901 2.856 
-1.283 16.916 2.842 
-1.353 17.833 2.977 
-1.458 19.199 3.107 
-1.456 19.18 3.085 
-1.395 18.376 2.899 
-1.386 18.258 2.861 
-1.389 18.306 2.85 
-1.296 17.089 2.643 
-1.453 19.131 2.92 
-1.301 17.152 2.547 
-1.304 17.195 2.519 
-1.305 17.201 2.502 
-1.306 17.224 2.488 
-1.311 17.286 2.479 
-1.31 17.264 2.458 
-1.312 17.297 2.445 
-1.331 17.537 2.462 
-1.331 17.538 2.444 
-1.326 17.479 2.417 
-1.328 17.5 2.403 
-1.328 17.499 2.385 
-1.335 17.594 2.38 
-1.331 17.548 2.356 
-1.329 17.523 2.334 
-1.331 17.54 2.319 
-1.375 18.102 2.375 
-1.373 18.078 2.354 
-1.372 18.065 2.333 
-1.374 18.091 2.318 
-1.329 17.511 2.226 
-1.373 18.085 2.281 
-1.373 18.088 2.263 
-1.374 18.1 2.246 
-1.331 17.53 2.033 
-1.463 19.254 2.174 
-1.485 19.538 2.167 
-1.488 19.579 2.152 
-1.475 19.409 2.074 
-1.478 19.452 2.059 
-1.332 17.543 1.591 
-1.333 17.567 1.576 
-1.387 18.262 1.546 
-1.351 17.803 1.382 
-1.256 16.556 0.853 
-1.253 16.523 0.834 
-1.398 18.421 0.912 
-1.397 18.403 0.874 
-1.405 18.506 0.842 
-1.255 16.547 0.57 
-1.41 18.571 0.491 
-1.274 16.804 0.226 
-1.393 18.129 4.177 
-1.339 17.434 3.998 
-1.297 16.895 3.786 
-1.297 16.898 3.768 
-1.381 17.969 3.782 
-1.373 17.875 3.688 
-1.277 16.627 3.309 
-1.276 16.619 3.272 
-1.274 16.594 3.251 
-1.276 16.617 3.238 
-1.279 16.654 3.228 
-1.279 16.655 3.211 
-1.363 17.734 3.4 
-1.41 18.34 3.498 
-1.409 18.339 3.478 
-1.366 17.775 3.353 
-1.415 18.413 3.455 
-1.372 17.851 3.293 
-1.368 17.803 3.267 
-1.367 17.787 3.245 
-1.368 17.806 3.23 
-1.37 17.823 3.142 
-1.369 17.815 3.122 
-1.369 17.819 3.104 
-1.369 17.818 3.085 
-1.369 17.815 3.066 
-1.303 16.959 2.902 
-1.297 16.888 2.837 
-1.477 19.21 3.129 
-1.414 18.396 2.865 
-1.412 18.367 2.841 
-1.313 17.088 2.625 
-1.314 17.108 2.611 
-1.314 17.1 2.592 
-1.324 17.233 2.471 
-1.342 17.466 2.487 
-1.343 17.484 2.472 
-1.386 18.032 2.531 
-1.343 17.475 2.435 
-1.344 17.489 2.419 
-1.344 17.491 2.402 
-1.344 17.493 2.384 
-1.351 17.582 2.379 
-1.347 17.53 2.353 
-1.389 18.076 2.408 
-1.39 18.088 2.392 
-1.39 18.083 2.373 
-1.389 18.074 2.353 
-1.39 18.083 2.336 
-1.345 17.503 2.225 
-1.344 17.494 2.206 
-1.348 17.548 2.196 
-1.346 17.517 2.067 
-1.347 17.528 2.051 
-1.481 19.255 2.194 
-1.479 19.232 2.133 
-1.481 19.264 2.117 
-1.493 19.421 2.076 
-1.496 19.455 2.059 
-1.345 17.514 1.553 
-1.404 18.27 1.547 
-1.368 17.808 1.4 
-1.368 17.803 1.382 
-1.272 16.567 0.886 
-1.267 16.502 0.85 
-1.269 16.522 0.834 
-1.415 18.403 0.874 
-1.42 18.474 0.84 
-1.272 16.562 0.538 
-1.271 16.547 0.521 
-1.427 18.571 0.491 
-1.29 16.797 0.226 
-1.409 18.109 4.171 
-1.358 17.46 3.93 
-1.313 16.885 3.782 
-1.314 16.895 3.766 
-1.398 17.972 3.781 
-1.296 16.659 3.349 
-1.293 16.618 3.323 
-1.291 16.599 3.302 
-1.295 16.645 3.294 
-1.293 16.617 3.271 
-1.291 16.601 3.251 
-1.299 16.696 3.252 
-1.295 16.644 3.225 
-1.296 16.662 3.211 
-1.426 18.316 3.492 
-1.427 18.327 3.475 
-1.43 18.37 3.464 
-1.433 18.407 3.452 
-1.388 17.834 3.326 
-1.387 17.818 3.305 
-1.309 16.828 3.103 
-1.388 17.829 3.27 
-1.387 17.811 3.248 
-1.386 17.804 3.229 
-1.387 17.811 3.211 
-1.386 17.798 3.19 
-1.385 17.788 3.17 
-1.386 17.803 3.155 
-1.387 17.821 3.14 
-1.388 17.831 3.068 
-1.319 16.945 2.88 
-1.314 16.888 2.836 
-1.327 17.052 2.811 
-1.495 19.195 3.145 
-1.328 17.063 2.707 
-1.328 17.065 2.691 
-1.329 17.074 2.639 
-1.329 17.076 2.622 
-1.336 17.163 2.548 
-1.413 18.145 2.638 
-1.413 18.151 2.62 
-1.36 17.47 2.487 
-1.361 17.491 2.471 
-1.411 18.117 2.542 
-1.407 18.071 2.498 
-1.407 18.076 2.481 
-1.408 18.086 2.463 
-1.369 17.585 2.378 
-1.366 17.544 2.354 
-1.407 18.07 2.406 
-1.407 18.077 2.389 
-1.408 18.089 2.372 
-1.48 18.998 2.472 
-1.455 18.678 2.411 
-1.355 17.415 2.23 
-1.36 17.472 2.22 
-1.361 17.489 2.204 
-1.362 17.504 2.189 
-1.362 17.503 2.1 
-1.364 17.521 2.084 
-1.365 17.536 2.05 
-1.498 19.236 2.132 
-1.5 19.262 2.116 
-1.502 19.28 2.098 
-1.511 19.399 2.072 
-1.518 19.481 2.06 
-1.422 18.262 1.545 
-1.386 17.811 1.399 
-1.385 17.801 1.38 
-1.283 16.502 0.848 
-1.432 18.393 0.872 
-1.438 18.469 0.838 
-1.437 18.463 0.82 
-1.288 16.573 0.487 
-1.288 16.572 0.47 
-1.291 16.606 0.438 
-1.45 18.632 0.472 
-1.477 18.983 0.33 
-1.302 16.743 0.258 
-1.303 16.765 0.241 
-1.406 17.834 4.11 
-1.312 16.654 3.349 
-1.308 16.605 3.288 
-1.307 16.593 3.268 
-1.309 16.606 3.253 
-1.313 16.667 3.248 
-1.307 16.582 3.214 
-1.386 17.579 3.39 
-1.393 17.665 3.388 
-1.315 16.691 3.184 
-1.314 16.675 3.163 
-1.315 16.684 3.148 
